# .PCD v0.7 - Point Cloud Data file format
VERSION 0.7
FIELDS x y z rgba
SIZE 4 4 4 4
TYPE F F F U
COUNT 1 1 1 1
WIDTH 1114
HEIGHT 1
VIEWPOINT 0 0 0 1 0 0 0
POINTS 1114
DATA ascii
-0.0056677409 -0.52686763 1.4450001 4292005069
0.016783897 -0.52126324 1.4466152 4291873225
0.047365122 -0.52695006 1.4563751 4291610309
0.068086646 -0.5337953 1.464 4291478208
-0.48152855 -0.509359 1.464 4291413964
-0.46944565 -0.50518399 1.452 4291348428
-0.011975672 -0.48986429 1.4465555 4292070861
0.01467657 -0.49331844 1.4528126 4292004811
0.043459184 -0.50100482 1.4633998 4291872967
-0.46313411 -0.47460964 1.4450001 4291282378
-0.014451196 -0.46265003 1.4531537 4292267726
0.011408988 -0.46771699 1.4634545 4292201932
0.035273798 -0.47677743 1.464 4291939017
-0.040873285 -0.432448 1.4496665 4292465363
-0.015546729 -0.43709245 1.4620998 4292333518
0.002460947 -0.44012314 1.464 4292201930
-0.071263738 -0.39948255 1.446909 4292530897
-0.042422004 -0.40534002 1.456125 4292530898
-0.019414285 -0.40618399 1.4639999 4292333774
-0.074023321 -0.3727085 1.4521333 4292465617
-0.04542698 -0.37542692 1.4621539 4292531154
-0.44871572 -0.33016023 1.464 4291940305
-0.10635149 -0.3461543 1.4491332 4292728536
-0.075555637 -0.34459433 1.4607999 4292465617
-0.046758324 -0.34780857 1.4639999 4292662740
-0.12750272 -0.31477413 1.4495001 4292597461
-0.10672799 -0.31608316 1.4542667 4292794840
-0.076913923 -0.31649727 1.4616923 4292662483
-0.05496154 -0.32201484 1.464 4292925656
-0.15140925 -0.28567696 1.4450001 4292531155
-0.13107942 -0.28258631 1.4546154 4292662485
-0.10516457 -0.28556016 1.4603076 4292860377
-0.087774381 -0.29757863 1.464 4292530642
-0.15435265 -0.24855478 1.4473333 4292531412
-0.13200416 -0.25461471 1.4575332 4292662996
-0.11033322 -0.25888801 1.464 4292926169
-0.18409301 -0.22171688 1.4473333 4292662482
-0.16314752 -0.22469118 1.4517857 4292531153
-0.13658047 -0.22930506 1.4597999 4292662482
-0.22023162 -0.181161 1.4450001 4292465359
-0.19425297 -0.19154951 1.4487691 4292465360
-0.16488059 -0.19479692 1.456875 4292531152
-0.1450481 -0.19554804 1.4624999 4292596688
-0.24047349 -0.15704192 1.4450001 4292399057
-0.22196664 -0.16393308 1.4449999 4292465103
-0.19753793 -0.1623697 1.4568751 4292530896
-0.16949865 -0.17043982 1.4614285 4292531153
-0.24666102 -0.13603204 1.4496665 4292530639
-0.22549705 -0.13768394 1.4529166 4292596689
-0.20311314 -0.1343215 1.4602499 4292596945
-0.25186566 -0.10519098 1.4507856 4292399308
-0.22711897 -0.10686176 1.4585456 4292662481
-0.20702286 -0.11159243 1.4604 4292596687
-0.27973443 -0.071116969 1.4470999 4292201929
-0.25445917 -0.073151395 1.4556875 4292333515
-0.23314019 -0.079601273 1.4624999 4292596687
-0.30524752 -0.036446605 1.4450001 4292267722
-0.28556618 -0.04457609 1.4479165 4292267466
-0.25828654 -0.046733942 1.4593333 4292333257
-0.31154498 -0.013220836 1.4449999 4292070599
-0.28646037 -0.016412063 1.4524999 4292201928
-0.26453072 -0.022216929 1.4615999 4292333256
-0.41050524 0.011791526 1.4450001 4292004811
-0.34168288 0.023851058 1.4450001 4291872963
-0.31634855 0.017390979 1.4496248 4292070085
-0.29268062 0.013724266 1.4586666 4292202185
-0.36462367 0.049310073 1.4450001 4291675839
-0.34264141 0.045701839 1.4490999 4291807169
-0.31761399 0.043523762 1.4572999 4292004548
-0.40156889 0.07465636 1.4478 4292005064
-0.36810616 0.073597327 1.4481111 4291609790
-0.3441996 0.072631739 1.45575 4291741119
-0.31702691 0.06887757 1.4619999 4292004290
-0.39797881 0.1018173 1.4485 4291939527
-0.37377968 0.10581588 1.4507142 4291543740
-0.34787217 0.10129327 1.4601818 4291609532
-0.39785919 0.13360013 1.4579998 4291807430
-0.38013315 0.13492709 1.4580001 4291544000
-0.39457455 0.1650801 1.464 4291741891
-0.38309002 0.16670918 1.4640001 4291478462
-0.39129326 0.18299998 1.464 4292004550
-0.38309002 0.18299998 1.464 4291741632
0.14249718 -0.63412839 1.47 4290952636
0.16386586 -0.63714796 1.477 4291150015
0.19362663 -0.63560516 1.4830002 4291084735
0.21998765 -0.63975102 1.4926667 4291084733
0.11778668 -0.60141319 1.47 4291215296
0.13665393 -0.61103857 1.4735001 4291150013
0.16499361 -0.61684293 1.4805294 4291215806
0.19427098 -0.61291409 1.488 4291216064
0.21355572 -0.61812085 1.4945999 4291150270
-0.50439727 -0.5819785 1.483 4291019980
0.10738558 -0.58193892 1.4725 4291347136
0.1349466 -0.58388692 1.4774166 4291347137
0.16548225 -0.58530176 1.489059 4291412930
0.19531266 -0.59540361 1.4959999 4291347393
0.21207768 -0.59540361 1.4960001 4291412673
-0.4994182 -0.55392468 1.483 4291085513
0.081544623 -0.55070478 1.47 4291412416
0.10535734 -0.55281579 1.4790586 4291544515
0.13564962 -0.55385643 1.4850835 4291544515
0.16294567 -0.55709344 1.4937501 4291544515
0.18693013 -0.55794811 1.4960001 4291544258
-0.50136113 -0.52756912 1.4925001 4291151050
0.077457935 -0.52326727 1.4719093 4291544000
0.10779042 -0.52513146 1.489231 4291807431
0.13563696 -0.52761197 1.4952224 4291741638
-0.48635265 -0.49798381 1.4786667 4291348171
-0.47946823 -0.48296517 1.483 4291282124
0.049146414 -0.48963651 1.4699999 4291741638
0.073626846 -0.49374422 1.4757999 4291806915
0.10485683 -0.49972871 1.4933078 4291938760
0.12825249 -0.49552226 1.4960001 4291938763
-0.48291686 -0.46706951 1.4936666 4291414224
-0.47752836 -0.45635793 1.477 4291480268
0.022239428 -0.45910239 1.47 4292004297
0.044490289 -0.46614513 1.4725456 4291872968
0.073449165 -0.46532938 1.4829999 4292004553
0.094722435 -0.4788754 1.4960001 4292136906
-0.48367128 -0.44558161 1.4960001 4291479761
-0.009884215 -0.42147997 1.47 4292333518
0.01661345 -0.43301263 1.4715 4292201931
0.044126704 -0.43830919 1.4855 4292267982
0.073301852 -0.4348498 1.4911766 4292267468
-0.0078250067 -0.40512243 1.47 4292399054
0.014925634 -0.40337577 1.4786874 4292530897
0.044221219 -0.40610602 1.4886669 4292530897
0.064703055 -0.4057858 1.4940002 4292267724
-0.46175653 -0.37470829 1.4795001 4291742672
-0.030476294 -0.37240729 1.4699999 4292531155
-0.013433337 -0.37696818 1.4781538 4292596947
0.01503483 -0.3729265 1.4884377 4292794326
0.043665279 -0.37596732 1.4960002 4292596946
-0.45875084 -0.34174308 1.4786667 4291808722
-0.040528931 -0.3420819 1.4768001 4292728532
-0.014906949 -0.34644079 1.4862729 4292860119
0.015057791 -0.34461868 1.4913335 4292728791
-0.45568749 -0.31996006 1.4732502 4291939794
-0.063574627 -0.30359906 1.4735 4292860119
-0.042278577 -0.31236303 1.4800665 4292860119
-0.014208131 -0.31568632 1.4919168 4292926168
0.0090331659 -0.31963408 1.4952223 4292860119
-0.076052628 -0.28586784 1.4757143 4292662482
-0.042337418 -0.2843821 1.4867693 4292860374
-0.01704447 -0.29021072 1.4960002 4292860118
-0.10169597 -0.25118408 1.4726251 4292860120
-0.076527819 -0.25637597 1.484875 4292794067
-0.044287987 -0.25673756 1.4918002 4292925911
-0.12740321 -0.21931344 1.47175 4292794325
-0.10530461 -0.22257395 1.4799166 4292991449
-0.076749958 -0.22397411 1.4891876 4292859860
-0.051840227 -0.23278794 1.4924999 4292991446
-0.13003644 -0.19766152 1.4783335 4292859861
-0.10580632 -0.19469994 1.487 4293057498
-0.079469979 -0.1963402 1.4932001 4292925652
-0.16334815 -0.15810181 1.4715557 4292662481
-0.13464712 -0.16536716 1.4836875 4292860118
-0.10608112 -0.16614975 1.4907502 4293123290
-0.087597325 -0.16882718 1.4960001 4292794067
-0.18903533 -0.13522257 1.47 4292596946
-0.16705586 -0.13578103 1.4761667 4292662738
-0.13627256 -0.13393737 1.490923 4292925911
-0.10925216 -0.14316323 1.4959999 4293320668
-0.21580502 -0.094328657 1.47 4292662482
-0.19421235 -0.10529498 1.4749001 4292728275
-0.16765518 -0.10741301 1.4814999 4292860117
-0.14061883 -0.1098419 1.4902859 4293057496
-0.22130148 -0.072058566 1.4746667 4292662481
-0.19252288 -0.074423097 1.4811249 4292728275
-0.16486825 -0.075061418 1.4936668 4292991702
-0.14837058 -0.076575689 1.4959999 4293123289
-0.24776785 -0.039862283 1.4723333 4292530637
-0.22545813 -0.045542613 1.4794167 4292662481
-0.19365162 -0.045863081 1.4899168 4292728530
-0.17072396 -0.051605359 1.4959999 4292860116
-0.25389811 -0.014080843 1.476091 4292399307
-0.2264234 -0.016796218 1.48575 4292596687
-0.19904122 -0.019362332 1.4926002 4292662479
-0.27894115 0.019025207 1.4710001 4292267465
-0.25750452 0.015358317 1.4778666 4292333513
-0.22984801 0.015340288 1.4893076 4292596430
-0.30229175 0.044710666 1.4699999 4292267464
-0.28429896 0.045553733 1.4707001 4292333258
-0.25616917 0.045072746 1.4814167 4292333256
-0.2328757 0.042608663 1.4914999 4292530892
-0.30935189 0.0785942 1.4700001 4292004548
-0.28278098 0.073628664 1.4756874 4292267464
-0.25371611 0.073098816 1.4890001 4292333255
-0.34182853 0.11504821 1.47 4291609789
-0.31555834 0.1063816 1.4743124 4291872703
-0.28410539 0.10698009 1.482625 4292135877
-0.2626977 0.10132054 1.49075 4292070339
-0.41122711 0.13531217 1.4766668 4291676097
-0.37230483 0.14285606 1.47 4291412408
-0.34772733 0.13473397 1.4705834 4291543994
-0.31645375 0.13545603 1.4785 4291741117
-0.28622189 0.13685204 1.4936668 4292070081
-0.26572582 0.13289762 1.4960001 4292135876
-0.40564308 0.15986435 1.4763333 4291676096
-0.37052721 0.16526541 1.4728001 4291478202
-0.34699473 0.16269842 1.475 4291543736
-0.3181667 0.16516609 1.4865626 4291675323
-0.29326838 0.16084059 1.4960002 4291938495
-0.39814383 0.19805415 1.4720001 4291609791
-0.37276429 0.1975244 1.4751333 4291478202
-0.34372833 0.19453682 1.4840909 4291412150
-0.31695288 0.19405439 1.4926002 4291543737
-0.29925591 0.20364687 1.4960001 4291740861
-0.40466157 0.22719944 1.4867501 4291346872
-0.37571976 0.22671527 1.4835 4291412411
-0.34454465 0.2239465 1.4925627 4291280564
-0.31769744 0.2152997 1.4960001 4291412152
-0.40219226 0.25244126 1.4891667 4291083186
-0.37824267 0.25380442 1.4896924 4291412410
-0.34753948 0.25252172 1.4946001 4291148720
-0.39705193 0.27855787 1.4959999 4291215542
-0.37761304 0.27631405 1.4951252 4291346617
-0.35513934 0.27300891 1.4959999 4291082930
0.23622981 -0.63791084 1.503 4290887352
0.25600547 -0.64203155 1.5077777 4290755509
0.2838335 -0.64344674 1.5210834 4290821045
0.31419626 -0.64956474 1.5285385 4290887353
0.33669981 -0.64681923 1.529 4290820785
0.23037241 -0.61193544 1.506 4291149757
0.25751102 -0.61304957 1.5127691 4290952375
0.28441772 -0.61372793 1.5284547 4291018168
0.30243012 -0.62129807 1.529 4291018683
0.19622654 -0.58146483 1.5030001 4291478465
0.22402601 -0.58446687 1.5086 4291281343
0.25344673 -0.58423144 1.5236924 4291149755
0.27958366 -0.58868772 1.5289999 4291083705
-0.51222003 -0.55330694 1.506 4291282635
0.17517218 -0.54801524 1.503 4291479236
0.19989108 -0.55461735 1.50675 4291544515
0.2244556 -0.55622536 1.5184617 4291412674
0.24816974 -0.55891299 1.5290002 4291347135
-0.51562124 -0.53019029 1.5160002 4291282892
-0.50277793 -0.51456571 1.503 4291151307
0.1400816 -0.51735312 1.5029999 4291807174
0.16635916 -0.52698863 1.5041877 4291675846
0.19501476 -0.52406758 1.5140002 4291741381
0.2225021 -0.52689129 1.5225556 4291544259
0.24245813 -0.52772057 1.529 4291478464
-0.51147532 -0.4979459 1.529 4291282377
-0.50403053 -0.4990499 1.5195 4291282633
0.10920189 -0.48390356 1.5029999 4291939015
0.1353756 -0.4921993 1.5034617 4291938761
0.16260676 -0.49497616 1.5105456 4291872967
0.1962471 -0.49467787 1.5264286 4291872967
0.21675587 -0.49794587 1.5289999 4291741380
-0.50093442 -0.47480768 1.523 4291348172
0.1035874 -0.46439135 1.5030001 4292202188
0.13418126 -0.46394467 1.5152502 4292070346
0.16475637 -0.4664512 1.5234166 4292004554
0.19092034 -0.46744138 1.5279092 4291939016
-0.49337059 -0.43751967 1.526 4291480013
0.10404817 -0.43695322 1.5093335 4292333520
0.13488258 -0.43681955 1.5235 4292201933
0.16518909 -0.43370458 1.5275002 4292136139
0.18982966 -0.43961185 1.5290002 4292004809
-0.51147532 -0.41287541 1.529 4291479757
-0.49644986 -0.40683052 1.5225 4291545811
0.082590759 -0.40612462 1.5040001 4292465360
0.10455825 -0.40531793 1.5166665 4292465361
0.13503753 -0.40760508 1.5252503 4292267724
0.15963969 -0.41003975 1.5289999 4292267726
-0.48378739 -0.37305483 1.5227499 4291808718
-0.47096357 -0.37389168 1.5089999 4291677135
0.053056948 -0.36404267 1.503 4292662227
0.075254768 -0.37721241 1.5105884 4292530896
0.10507264 -0.37343419 1.5243331 4292662227
0.13186045 -0.37807381 1.5290002 4292464848
0.027791727 -0.33059311 1.503 4292728274
0.044750359 -0.34393156 1.5065001 4292662482
0.074018434 -0.34566912 1.5178667 4292662481
0.10233355 -0.34697816 1.526 4292728533
0.12251417 -0.35332605 1.529 4292596436
0.022214213 -0.31149295 1.505 4292860118
0.044960693 -0.31609154 1.5136666 4292728532
0.075042635 -0.31351191 1.5216252 4292794068
0.096811898 -0.31504434 1.529 4292925913
-0.011517574 -0.27799889 1.505 4292925912
0.01527048 -0.28648308 1.5130002 4292860376
0.045100372 -0.28749365 1.5183333 4292662739
0.068212911 -0.28791323 1.528 4292662737
-0.013625073 -0.25381717 1.5121818 4293123290
0.015314501 -0.25353837 1.5173126 4292860375
0.045292143 -0.25479248 1.5249168 4292728275
0.062542193 -0.26400205 1.529 4292728273
-0.041006554 -0.22342062 1.5040002 4293123289
-0.015279678 -0.22537704 1.5152999 4293057753
0.015359619 -0.22455467 1.5211667 4292860118
0.038981773 -0.22784711 1.529 4292728787
-0.069952235 -0.18523131 1.5042 4292991447
-0.043997444 -0.19354349 1.5103751 4293123289
-0.014509448 -0.19523664 1.5235 4293057496
0.013577788 -0.20482638 1.5272857 4292926169
-0.090112641 -0.15498295 1.503 4292794066
-0.072386645 -0.16374871 1.50675 4293057238
-0.04414995 -0.16469154 1.5154166 4293123290
-0.015762625 -0.16841054 1.5272858 4293123290
-0.1237996 -0.13407698 1.503 4293057497
-0.1012718 -0.13201986 1.5053077 4293123547
-0.073665589 -0.13481061 1.5113333 4292991702
-0.044347547 -0.13577594 1.5223126 4293189082
-0.023132067 -0.13214283 1.529 4293255131
-0.13248526 -0.10081994 1.506 4293189081
-0.10315854 -0.10522679 1.5090833 4293254876
-0.073943414 -0.10580784 1.5174444 4293123287
-0.048802167 -0.11020301 1.5281429 4293254874
-0.13418463 -0.075596243 1.5106925 4293123545
-0.10377489 -0.076290198 1.5181876 4293254875
-0.076046929 -0.075787514 1.5252001 4293123288
-0.16310106 -0.043484438 1.5030001 4292860374
-0.13753808 -0.046647672 1.5154166 4292991959
-0.10345478 -0.043574225 1.5261333 4293189339
-0.077392429 -0.049908031 1.5290002 4293123288
-0.18696266 -0.012822346 1.5030001 4292794066
-0.16634704 -0.017034883 1.507 4292860116
-0.13871159 -0.01802378 1.5191333 4292991702
-0.1150016 -0.021500573 1.526 4293189083
-0.21643873 0.020627208 1.5029999 4292596430
-0.1955668 0.016462428 1.5045002 4292728273
-0.16301946 0.016602961 1.5155002 4292860115
-0.13879232 0.003969938 1.529 4292991702
-0.21980743 0.047386855 1.503 4292530894
-0.19617283 0.045910966 1.50925 4292662480
-0.16400725 0.046375912 1.5247501 4292859602
-0.24170397 0.083345123 1.503 4292399049
-0.22537571 0.075167082 1.5065001 4292530892
-0.19721922 0.07571502 1.5173126 4292596687
-0.16669671 0.073951133 1.5280769 4292794066
-0.2493142 0.10540462 1.5045 4292201670
-0.22587013 0.10472553 1.5097777 4292465099
-0.1981153 0.10572503 1.5242501 4292531150
-0.17391877 0.10435309 1.529 4292662479
-0.42868677 0.14664611 1.5089999 4291610046
-0.25087675 0.13393982 1.5075833 4292135874
-0.22305866 0.13501042 1.5196877 4292333256
-0.19876429 0.13582917 1.5290002 4292465098
-0.42868677 0.15504189 1.5089999 4291478974
-0.30065617 0.17951259 1.503 4291741118
-0.28065452 0.17010491 1.5030001 4292004288
-0.25575018 0.1637177 1.5115 4292069823
-0.2238158 0.1651528 1.5247499 4292201670
-0.20304802 0.1570968 1.529 4292333767
-0.30065617 0.19205618 1.503 4291675324
-0.28393483 0.19632813 1.5036669 4291806909
-0.25739869 0.19441146 1.5213749 4291938494
-0.23160613 0.1882893 1.5290002 4292135618
-0.31082731 0.22985668 1.5040911 4291412150
-0.28618771 0.22420421 1.5110999 4291675324
-0.26015869 0.22335255 1.5225 4291872447
-0.33434311 0.2589553 1.503 4291214511
-0.31401676 0.25539035 1.5065833 4291280562
-0.28209159 0.25445715 1.5210667 4291543737
-0.26301998 0.2464208 1.529 4291741118
-0.39997888 0.29457676 1.507 4291149233
-0.37476748 0.29324108 1.503 4291149750
-0.34481356 0.28638494 1.5034617 4291017134
-0.31668821 0.28424475 1.5135716 4291148722
-0.28356701 0.28385511 1.5244166 4291412151
-0.39919332 0.31464309 1.5093335 4290886062
-0.37662256 0.3134535 1.5036668 4291149496
-0.34778404 0.31406054 1.5065836 4290754220
-0.31608707 0.31492966 1.5223572 4290951342
-0.28521749 0.31354755 1.5286001 4291215026
-0.40359867 0.34708753 1.5206666 4290491306
-0.37525123 0.34536231 1.5151252 4290952114
-0.34263006 0.34672949 1.5174001 4290622887
-0.31560266 0.34284884 1.5265001 4290819501
-0.29300597 0.34425187 1.5290002 4290951342
-0.39153138 0.37828004 1.529 4291083699
-0.37446663 0.37662631 1.5222999 4290820529
-0.34360674 0.37741694 1.5255002 4290425512
-0.31728035 0.36693731 1.5290002 4290622629
-0.293006 0.36126596 1.529 4290951341
-0.39153138 0.39529413 1.529 4290952364
-0.37332562 0.40273783 1.5290002 4290688944
-0.35094184 0.40236428 1.528143 4290359718
-0.37439653 0.42081526 1.529 4290689455
-0.35726169 0.42081526 1.529 4290425253
0.3519612 -0.66410923 1.5395 4290755504
0.37663069 -0.66532689 1.5523334 4290821820
0.40460688 -0.66638148 1.5527999 4290624442
0.32102799 -0.63696146 1.5359999 4291018682
0.35052022 -0.64554745 1.5395001 4290689461
0.3741073 -0.64537573 1.5563 4290887611
0.39624572 -0.64967531 1.5541999 4290821821
0.29520804 -0.60277742 1.536 4291149753
0.3186706 -0.61457175 1.5365 4291083962
0.3428275 -0.61534053 1.5400001 4290820787
0.36249542 -0.62184715 1.557 4290887099
0.26938811 -0.57713944 1.536 4291083448
0.2894392 -0.58155352 1.5380001 4291215035
0.31494716 -0.58461815 1.541923 4291215551
0.34268498 -0.58647454 1.5525455 4290952117
0.26078147 -0.55235606 1.5360001 4291346621
0.28803691 -0.55734026 1.5436364 4291281084
0.31538188 -0.55497044 1.5544547 4291412928
0.33995759 -0.56192917 1.557 4291083703
-0.52768642 -0.51967502 1.5429999 4291479761
0.23065817 -0.51731753 1.536 4291610307
0.25843719 -0.52292055 1.5374001 4291412414
0.28711939 -0.52701259 1.5519999 4291412414
0.31494787 -0.52265769 1.557 4291478722
-0.5204016 -0.49129921 1.5402 4291282382
0.22992451 -0.49602202 1.5406668 4291741381
0.25429806 -0.49717942 1.5488334 4291544256
0.28013679 -0.50090939 1.5558333 4291412413
-0.51615858 -0.47675037 1.543 4291348430
-0.50904757 -0.46095744 1.5476665 4291479757
0.20627266 -0.46319291 1.5359999 4292004296
0.2277564 -0.464555 1.5453334 4291872966
0.25365171 -0.46764928 1.5556 4291741380
-0.51211751 -0.42043623 1.557 4291611082
-0.50360954 -0.43342429 1.5416 4291545550
0.19820642 -0.43335399 1.5370001 4292135883
0.2244045 -0.43551794 1.5521001 4292004552
0.2468982 -0.44209331 1.557 4291939016
-0.51211751 -0.40744197 1.557 4291413963
-0.49714547 -0.4046213 1.543 4291611598
0.16972901 -0.40070164 1.5395001 4292202188
0.19339585 -0.4049834 1.5476667 4292201932
0.21738479 -0.40709177 1.5538889 4292070603
0.14373103 -0.36861724 1.536 4292399311
0.16632316 -0.37611458 1.5458001 4292267981
0.19407943 -0.37617576 1.5531112 4292267981
0.21636307 -0.37712204 1.557 4292136394
-0.49103248 -0.35636958 1.5546666 4291742929
0.11257759 -0.33861175 1.5395 4292662483
0.13470313 -0.34431887 1.5459167 4292465359
0.16440584 -0.3448886 1.5523332 4292465103
0.19128065 -0.35005072 1.557 4292465102
0.22072522 -0.35979638 1.557 4292267470
0.11012971 -0.31627592 1.544 4292728533
0.13295297 -0.31521314 1.5507779 4292530896
0.161332 -0.31720233 1.5563 4292530896
-0.48594454 -0.28183088 1.557 4291940049
0.083461508 -0.28078997 1.5395001 4292926168
0.10664198 -0.28433484 1.5470834 4292728534
0.1324304 -0.28675702 1.5538182 4292596689
0.15442042 -0.29222628 1.557 4292530898
0.076698892 -0.2538642 1.5406667 4292925911
0.10673687 -0.2544322 1.5484445 4292860119
0.12447728 -0.25957921 1.5534999 4292728020
0.050668903 -0.22121212 1.5400001 4292794066
0.076248139 -0.22392724 1.5460624 4292991704
0.10712442 -0.22509514 1.5540833 4292860118
0.12475774 -0.22985387 1.557 4292859605
0.016946439 -0.18990745 1.5375557 4292991705
0.044966359 -0.19515266 1.5430001 4292794324
0.076496147 -0.19445823 1.5511667 4293057498
0.10054424 -0.19691971 1.5535001 4292991705
-0.0089027071 -0.15576473 1.5383333 4293189081
0.015553972 -0.16316475 1.5408124 4293123290
0.045267459 -0.16537231 1.5506364 4292925910
0.072411828 -0.17137975 1.557 4293189339
-0.014655638 -0.13652137 1.5402001 4293189081
0.015626943 -0.13379997 1.5482501 4293189338
0.041820485 -0.13435455 1.5546666 4292991703
-0.066271216 -0.090017818 1.536 4293255130
-0.041407563 -0.096664697 1.5360001 4293189338
-0.014714997 -0.10353005 1.5465001 4293254875
0.014818775 -0.10375878 1.5541998 4293254876
-0.066271216 -0.072925828 1.536 4293255131
-0.044877496 -0.073140904 1.5406667 4293189338
-0.01478124 -0.073733896 1.5531112 4293189338
0.0047983574 -0.076088578 1.557 4293255132
-0.072059311 -0.035916127 1.5371667 4293189080
-0.044997282 -0.043247718 1.5447499 4293189337
-0.020065948 -0.049666934 1.557 4293189339
-0.12651776 -0.004557881 1.536 4293320408
-0.1016541 -0.011204764 1.5360001 4293189082
-0.075248308 -0.013157247 1.5437779 4293123288
-0.04698386 -0.014977949 1.5535001 4293189338
-0.13426375 0.019370904 1.5360001 4293057494
-0.10528795 0.016867146 1.5403749 4293189338
-0.076370232 0.015796581 1.5506364 4293057495
-0.058452949 0.0083740549 1.557 4293254875
-0.13525254 0.046761073 1.5375557 4292991702
-0.105849 0.047118153 1.5488334 4293189082
-0.077570356 0.040391751 1.5555999 4292991958
-0.15520658 0.086599387 1.5359999 4292794322
-0.13557972 0.07690233 1.5412501 4292925907
-0.1073404 0.072384998 1.5531819 4293123289
-0.15848531 0.10776089 1.5360001 4292728273
-0.13634293 0.10752409 1.5500001 4292859859
-0.11952318 0.095002398 1.557 4293057752
-0.18676428 0.13645102 1.536 4292530894
-0.16560216 0.13676925 1.5394999 4292596685
-0.14207539 0.13213989 1.5555999 4292794066
-0.19440149 0.1675299 1.5368751 4292399305
-0.16647995 0.16764182 1.5476667 4292530636
-0.22119088 0.20054598 1.5360001 4292069825
-0.19589731 0.19424197 1.5402001 4292267464
-0.16840491 0.1935228 1.5544547 4292399046
-0.24701083 0.23045695 1.536 4291741118
-0.2260692 0.22678852 1.5400834 4291872701
-0.19359227 0.22416282 1.5515 4292070338
-0.17186908 0.21628207 1.557 4292267463
-0.25389615 0.25780413 1.5360001 4291609531
-0.22739366 0.25420201 1.5424615 4291675321
-0.2024042 0.25526479 1.557 4291938497
-0.25381818 0.28834799 1.5442729 4291543738
-0.22484423 0.2843881 1.5521538 4291543481
-0.20676635 0.28558475 1.557 4291675325
-0.25515407 0.31408414 1.5437001 4291412152
-0.23231849 0.31510419 1.5530001 4291346359
-0.20676635 0.30724183 1.557 4291609274
-0.27759069 0.34473705 1.5420001 4291148978
-0.25696561 0.34243381 1.5529166 4291215030
-0.23293932 0.33323032 1.557 4291280311
-0.40948838 0.37873057 1.54825 4290097057
-0.31178758 0.38172483 1.5371667 4290622632
-0.28423324 0.37487367 1.5461112 4290951599
-0.2566196 0.37159428 1.557 4291082930
-0.40534219 0.4052574 1.5453334 4290162595
-0.38471723 0.41419584 1.536 4290886582
-0.33712715 0.40810627 1.5388 4290293923
-0.31253722 0.40611038 1.5469999 4290425510
-0.28650528 0.40441185 1.5542001 4290688684
-0.40064082 0.43455717 1.5476667 4290096287
-0.37495542 0.43407345 1.5391113 4290491820
-0.34432784 0.43247882 1.5402001 4290096547
-0.31634501 0.43550694 1.5538182 4290228130
-0.29110143 0.43140912 1.557 4290425768
-0.40038833 0.45603535 1.5523334 4289768091
-0.37366545 0.4637149 1.5471998 4290228391
-0.3455736 0.46423352 1.5500001 4289964703
-0.32018247 0.46317285 1.557 4290030752
-0.37427324 0.4960916 1.557 4290097061
-0.34635544 0.49686167 1.557 4289701788
-0.3289068 0.48049852 1.557 4289964447
-0.37689054 0.51514983 1.557 4290031782
-0.34635547 0.51514983 1.557 4289504667
0.43642434 -0.67032719 1.564 4290624186
0.46909937 -0.66833031 1.567 4290492599
0.49443159 -0.67335701 1.5813333 4290492599
0.38238248 -0.63406968 1.564 4290952637
0.40930331 -0.64136219 1.5650001 4290821564
0.43373424 -0.64572251 1.5652307 4290689980
0.46438232 -0.64397562 1.5707694 4290492857
0.49479961 -0.64743972 1.5825 4290558137
0.51810122 -0.65769583 1.586 4290359986
0.37770858 -0.61289549 1.564 4290952893
0.4081122 -0.61293381 1.5730835 4290887358
0.43505821 -0.61365062 1.5749168 4290821565
0.46420026 -0.6174233 1.5790001 4290689723
0.4847756 -0.61578095 1.586 4290689723
0.37336221 -0.58637053 1.5695386 4291084220
0.40402383 -0.58370543 1.5790001 4291083966
0.43277106 -0.59051406 1.5849999 4290887103
0.46033689 -0.59592658 1.586 4290821311
-0.55218703 -0.54902321 1.57175 4291480016
0.32688007 -0.54415131 1.564 4291413185
0.34732831 -0.54995251 1.564 4291149495
0.37285611 -0.55404335 1.5764546 4291149756
0.40232438 -0.56279194 1.5849999 4291084221
0.42923304 -0.56945395 1.586 4291018946
-0.55918729 -0.53617287 1.579 4291611601
0.32195634 -0.52552855 1.5656 4291544512
0.34616047 -0.52499115 1.5682728 4291215033
0.3702561 -0.52663422 1.5846 4291346877
0.28477171 -0.48945203 1.5653334 4291544001
0.31342077 -0.49659872 1.5696665 4291610051
0.34611222 -0.49569008 1.5783335 4291412412
0.26553527 -0.45713353 1.564 4291675587
0.2850866 -0.4659411 1.5702002 4291609792
0.31178519 -0.46507379 1.5802728 4291741636
0.34072995 -0.4681803 1.5842501 4291543998
0.23632348 -0.42812762 1.564 4291939271
0.25906324 -0.43451613 1.5671999 4291872965
0.28404045 -0.43686619 1.5737275 4291741378
0.31074223 -0.44003269 1.586 4291938758
0.33592153 -0.44591543 1.586 4291675328
0.23573923 -0.40318251 1.564 4292070345
0.25908756 -0.40409783 1.5731819 4292004295
0.2855337 -0.40794381 1.5825001 4291807430
-0.51050597 -0.3648802 1.579 4291808718
-0.50738066 -0.38009444 1.5693334 4291676877
0.22768307 -0.37299198 1.5688001 4292201932
0.25279725 -0.37753904 1.581154 4292004552
-0.51050597 -0.35609496 1.579 4291677134
-0.49689278 -0.33965951 1.564 4291874254
0.20226072 -0.34226373 1.5660001 4292465104
0.2239068 -0.34421235 1.5730002 4292267724
0.24816424 -0.34664336 1.586 4292201676
-0.49751258 -0.31670517 1.579875 4291808720
0.17593646 -0.30741209 1.5660001 4292465101
0.19648893 -0.31521907 1.5724169 4292399567
0.22112407 -0.31734836 1.5805556 4292333518
-0.49714866 -0.29073703 1.574 4291808461
0.14284571 -0.27439615 1.564 4292596945
0.16892627 -0.28239694 1.570889 4292530896
0.19730125 -0.28581309 1.579 4292530896
0.22007525 -0.28665128 1.5836667 4292465103
-0.48835579 -0.25142595 1.5836667 4291874513
0.13755153 -0.25312904 1.5701112 4292662482
0.16521467 -0.25554335 1.5766003 4292596690
0.19674444 -0.25508583 1.5854617 4292531153
0.21817124 -0.2628136 1.586 4292530896
0.13483867 -0.22436279 1.5725557 4292728532
0.16232271 -0.22486451 1.582889 4292728275
0.19195513 -0.22707567 1.5860001 4292596689
0.11419777 -0.19264127 1.5716667 4292925909
0.13542792 -0.19362824 1.5795835 4292925653
0.1625721 -0.19434983 1.5854168 4292794324
0.18395701 -0.19707346 1.586 4292728533
-0.48396322 -0.17160499 1.579 4292136911
0.055210292 -0.15257123 1.564 4292925653
0.07624279 -0.1577923 1.564 4293320669
0.10397937 -0.1645989 1.572143 4292991704
0.13583921 -0.1633725 1.5844445 4292925397
0.15374184 -0.16795364 1.586 4292925655
0.055210292 -0.13516767 1.564 4293057496
0.072949059 -0.13553694 1.5684446 4293254875
0.10436035 -0.13635996 1.5778335 4292991702
0.13004369 -0.14295179 1.586 4292925655
0.028919667 -0.10906234 1.564 4293255130
0.04657675 -0.10496812 1.568 4292991702
0.073173217 -0.10529685 1.573 4293254875
0.10328944 -0.10772382 1.5810002 4293057239
0.12708141 -0.11942064 1.586 4292794325
0.02128855 -0.07325688 1.566 4293123545
0.046762336 -0.074737154 1.5743334 4292925909
0.07351169 -0.075032577 1.5805556 4293254874
0.094496429 -0.072358318 1.586 4293123289
-0.011146717 -0.039470553 1.5651429 4293123290
0.015883271 -0.044031151 1.5727502 4293123545
0.045188982 -0.046029057 1.5811001 4292991446
0.073712811 -0.053196847 1.5848333 4293189083
-0.036806889 -0.0046409671 1.564 4293123288
-0.014977293 -0.013413304 1.5727779 4293189080
0.014736983 -0.014262293 1.5790001 4293123288
0.042614523 -0.017917858 1.58425 4292991444
-0.042974539 0.01365028 1.5656 4293189081
-0.015040921 0.012884996 1.579 4293189080
0.011537585 0.012910385 1.5821111 4293123287
-0.072737411 0.051050425 1.564 4292991701
-0.045696512 0.043362554 1.5690001 4293123287
-0.015880547 0.042563744 1.5834546 4293057238
0.0056243744 0.033486877 1.5836667 4293057751
-0.093769908 0.082376838 1.564 4293057751
-0.076444536 0.073879473 1.5684446 4292991446
-0.045855176 0.074171565 1.5743335 4292991702
-0.023994412 0.06588722 1.586 4292991958
-0.12006053 0.11283307 1.564 4292991702
-0.10257342 0.10418124 1.5646666 4293057752
-0.076667547 0.1047509 1.5730001 4292860115
-0.048193235 0.10146946 1.5790001 4292991700
-0.1263202 0.13583064 1.564 4292859859
-0.10286815 0.13504648 1.5693334 4292991959
-0.076771401 0.13553934 1.5751112 4292794319
-0.059454065 0.13629287 1.5836667 4292794319
-0.13336498 0.16526593 1.5659999 4292662736
-0.10406859 0.16348764 1.5741001 4292925909
-0.07820306 0.1614202 1.581625 4292662221
-0.1551147 0.20420176 1.564 4292464843
-0.13374856 0.19633031 1.5705835 4292596686
-0.10668894 0.19046547 1.5825 4292860116
-0.077315286 0.1806016 1.586 4292596428
-0.18140532 0.23900889 1.564 4292070335
-0.16308081 0.22669649 1.5657779 4292267719
-0.13436769 0.22357835 1.5778335 4292465100
-0.11286255 0.22472252 1.586 4292662736
-0.18578708 0.25641245 1.564 4291938753
-0.1634725 0.25544208 1.5687001 4292136133
-0.1372263 0.25280797 1.5833079 4292267721
-0.19113426 0.28594881 1.5654545 4291806910
-0.1651924 0.28480583 1.5766667 4291938753
-0.1484098 0.28649181 1.586 4292070342
-0.21865037 0.31514946 1.564 4291477685
-0.19393672 0.31673422 1.5689092 4291609531
-0.16575851 0.31220564 1.5821111 4291807166
-0.1484098 0.31296435 1.586 4291938752
-0.24713188 0.35213202 1.564 4291083443
-0.22466952 0.3453849 1.5678751 4291214772
-0.19570191 0.34596661 1.5816925 4291412153
-0.16840512 0.33281875 1.586 4291609533
-0.25151369 0.3782374 1.564 4291083184
-0.22691678 0.37421152 1.5703636 4291083186
-0.19940735 0.37285888 1.5818001 4291214515
-0.27471262 0.4150252 1.5715001 4290819757
-0.25557333 0.40499341 1.5695456 4290885807
-0.22443628 0.40664956 1.5842501 4290820272
-0.19728726 0.39238203 1.586 4291082930
-0.30409488 0.44785163 1.564 4290228132
-0.27755684 0.43644875 1.5682224 4290557355
-0.25353754 0.43393847 1.5766667 4290754221
-0.23372321 0.43650293 1.586 4290819758
-0.40049383 0.47395694 1.564 4289767838
-0.30461338 0.46603361 1.5666666 4290096802
-0.28463733 0.46430138 1.5721538 4290294184
-0.25726339 0.46114215 1.5839999 4290622893
-0.22839111 0.4541513 1.586 4290491564
-0.39863011 0.49880722 1.5738333 4289833629
-0.33257639 0.49788684 1.564 4289702042
-0.31388375 0.4930104 1.5692222 4289899168
-0.28584436 0.49327365 1.5777274 4290162085
-0.26393837 0.48062384 1.586 4290426029
-0.39360881 0.52433991 1.5715001 4289965463
-0.37295127 0.52865386 1.564 4289833632
-0.34467471 0.52936357 1.5710911 4289438871
-0.31639445 0.52520579 1.5777274 4289701788
-0.29149631 0.52157295 1.5839999 4289833632
-0.39724055 0.54239309 1.586 4289636243
-0.37233806 0.55606365 1.5746669 4289636509
-0.34222877 0.55729938 1.5782223 4289372825
-0.31622663 0.55803341 1.5853001 4289373079
-0.29948562 0.5468052 1.586 4289635995
-0.39724055 0.59533823 1.586 4288451706
-0.37433878 0.58544523 1.5830835 4289439129
-0.34374669 0.58623075 1.5852222 4289307543
-0.32614607 0.57768989 1.586 4289175958
-0.37502354 0.61078054 1.586 4289702299
-0.35280651 0.6041624 1.586 4289636250
0.82622486 0.62506825 1.572 4286150263
-0.6727317 0.64828336 1.586 4285031768
-0.3735424 0.63357639 1.586 4288780430
0.47366711 0.63945913 1.586 4286610551
0.49588415 0.63945913 1.586 4286676345
0.52698803 0.63945913 1.586 4286676608
0.6069693 0.63945913 1.586 4286545021
0.63807315 0.63945913 1.586 4286545273
0.71361107 0.63945913 1.586 4286347897
0.81773424 0.63301736 1.5744001 4286150516
0.51959807 -0.67985928 1.594 4289504150
0.50285131 -0.64327598 1.594 4290426551
0.51938695 -0.64716965 1.6036667 4290294190
0.46712473 -0.6078012 1.594 4290624187
0.50095004 -0.61266553 1.6001427 4290623673
0.51788437 -0.61295688 1.6036667 4289899172
0.44181845 -0.5782389 1.594 4290952637
0.46801791 -0.58296889 1.594 4290821308
0.4955925 -0.58595419 1.6022002 4290689466
0.5207839 -0.58445996 1.61 4289438106
-0.56894547 -0.54572034 1.594 4291414480
0.38673997 -0.54572034 1.594 4291411903
0.40460324 -0.54926783 1.594 4291150014
0.43395013 -0.55644226 1.5968 4291018431
0.46535093 -0.55555046 1.5990909 4290952638
0.49696457 -0.55401921 1.6082306 4290755260
0.51884645 -0.55325222 1.6160001 4290754228
0.38260105 -0.52041131 1.5979999 4291346878
0.40638006 -0.52584773 1.601 4291215551
0.43417549 -0.52689177 1.60425 4291149760
0.46314305 -0.52793449 1.6063845 4291083968
0.48946917 -0.52551252 1.6136667 4290887104
0.37773862 -0.49497336 1.598375 4291412416
0.40729308 -0.49293259 1.6075 4291281343
0.43154827 -0.50066358 1.6145999 4291281088
0.35696781 -0.46294585 1.594 4291543741
0.37590539 -0.46459067 1.604875 4291544000
0.3977325 -0.46787304 1.6144445 4291478208
0.3182641 -0.42747107 1.594 4291939015
0.34689111 -0.43383834 1.594 4291543998
0.3741025 -0.43476167 1.61 4291675585
-0.52970451 -0.40270981 1.6013333 4291545550
0.29295775 -0.39495254 1.594 4291807428
0.31528687 -0.4038212 1.594 4291939016
0.34295827 -0.40482533 1.598 4291609790
0.3668333 -0.40665126 1.6111668 4291610050
-0.53047198 -0.37205744 1.6036667 4291677137
0.28710192 -0.37508696 1.5952728 4291873223
0.31580818 -0.37396872 1.6036153 4292005065
0.34564114 -0.37663007 1.6105833 4291675841
0.3649129 -0.37343028 1.6160001 4291807171
-0.52052909 -0.34590793 1.6029999 4291611597
0.25946411 -0.34174037 1.594 4292136139
0.27981949 -0.34625572 1.5999999 4292070345
0.31397048 -0.34517828 1.6100832 4292070859
0.34378481 -0.34945405 1.6160001 4291872963
0.36491293 -0.3554481 1.6160001 4291873223
-0.51923531 -0.31747887 1.6059999 4291611598
0.2349021 -0.31069994 1.594 4292333517
0.25276539 -0.31513429 1.594 4292201930
0.28216448 -0.31354412 1.6087499 4292135881
0.31420544 -0.31588727 1.6159997 4292202187
0.3377482 -0.32847479 1.6160001 4292070599
-0.51341355 -0.2835193 1.6160001 4291808209
0.23515998 -0.28439113 1.59575 4292399566
0.25391924 -0.28536165 1.6012501 4292333516
0.28213832 -0.28336093 1.6151251 4292202187
0.30605602 -0.28801486 1.6160001 4292333517
-0.49858469 -0.24915522 1.5975 4291939791
0.22896446 -0.25226274 1.597 4292465103
0.25551441 -0.25577825 1.6112224 4292333517
0.28228688 -0.2576699 1.6160001 4292267723
0.30152857 -0.25654602 1.6160001 4292268235
-0.50217384 -0.23753041 1.609 4291873997
0.20364136 -0.21757863 1.594 4292728276
0.227902 -0.22387569 1.6075 4292531152
0.25272456 -0.22831967 1.6151251 4292399310
-0.49070618 -0.18290357 1.601 4292071633
0.19872758 -0.19583014 1.5975 4292662739
0.22660324 -0.19212605 1.6111 4292662481
0.24719907 -0.20259944 1.6160001 4292399566
-0.49315816 -0.16591322 1.609 4292071631
0.16600087 -0.16309953 1.594 4292859860
0.19123064 -0.16518864 1.6021111 4292794069
0.22433005 -0.16644809 1.6142498 4292728275
0.14016327 -0.13124551 1.59575 4292860116
0.16446804 -0.13412024 1.6038333 4292925654
0.19238259 -0.13479589 1.6118332 4292794325
0.21663876 -0.13853785 1.6160001 4292728531
0.11432496 -0.093416929 1.594 4292925910
0.13751163 -0.10290378 1.6037778 4292859859
0.16531917 -0.10344347 1.6121112 4292860116
0.19136047 -0.10669438 1.6160001 4292859860
-0.4751268 -0.067439556 1.609 4292071374
0.10916048 -0.076845586 1.598 4292925910
0.13793984 -0.076377161 1.608889 4292925910
0.16106433 -0.076662175 1.6148334 4292860117
0.05626931 -0.035770416 1.594 4293189337
0.074193388 -0.035793353 1.5951667 4293189081
0.10391901 -0.046082098 1.6002856 4292860373
0.13591297 -0.043952588 1.6154997 4292860116
0.15664996 -0.05424631 1.6160001 4292859861
0.029474393 -0.0047299885 1.594 4292991702
0.050910331 -0.010051205 1.594 4293057237
0.074381433 -0.013636474 1.5994444 4293189338
0.10172673 -0.013692732 1.606111 4292860117
0.12646692 -0.016783401 1.6160001 4292859859
0.029474393 0.0130074 1.594 4292991445
0.047503717 0.013060482 1.5994444 4292991445
0.074597098 0.013086283 1.6036667 4293123289
0.10087091 0.012020196 1.6107501 4292925910
0.12043031 0.0041958275 1.6160001 4292728275
-0.0062521659 0.05735087 1.594 4292991702
0.018546171 0.046563584 1.5983077 4292991445
0.047707673 0.044407185 1.6063333 4292925909
0.074128971 0.043326091 1.6115454 4292991959
0.096149214 0.034121148 1.6136667 4292925652
-0.014104121 0.076417536 1.598375 4292991444
0.016195348 0.07562127 1.6049999 4292925652
0.047861144 0.075913429 1.6113334 4292991188
0.069665536 0.074268229 1.6145999 4292991704
-0.039745811 0.11721456 1.594 4292926165
-0.015282858 0.10243437 1.6054444 4292925652
0.015018777 0.10192223 1.6102726 4292859859
0.043421391 0.098500445 1.6142499 4292860115
-0.041994844 0.13724037 1.5947777 4292860115
-0.015326689 0.13398385 1.6089998 4292859858
0.0095061678 0.13000564 1.6151251 4292859859
-0.064439215 0.17302299 1.5975 4292662734
-0.04542673 0.16378964 1.6019092 4292728529
-0.018365258 0.16269194 1.6125001 4292794066
0.0027164551 0.15704449 1.6160001 4292794579
-0.099141218 0.20102373 1.594 4292860116
-0.073976882 0.19512257 1.5965 4292530892
-0.043062143 0.19488673 1.6046363 4292662480
-0.10003438 0.22585607 1.594 4292662736
-0.072504349 0.22551724 1.6013076 4292399306
-0.041556515 0.22669081 1.6125 4292530894
-0.12236349 0.26133084 1.594 4292399308
-0.10464009 0.25283173 1.5963333 4292596942
-0.076442406 0.25340417 1.6056 4292267720
-0.047085561 0.24695548 1.6160001 4292530894
-0.13217701 0.28530329 1.59575 4292201927
-0.10516862 0.28537127 1.6044165 4292334028
-0.078483626 0.28371683 1.6103001 4292136134
-0.13496216 0.31557664 1.5991818 4292004292
-0.10573418 0.31828335 1.6128889 4292202185
-0.086021684 0.31348959 1.6159999 4292136392
-0.16590521 0.35112634 1.594 4291543739
-0.13692455 0.34418753 1.6081666 4291807171
-0.10745164 0.34286055 1.6160001 4292005064
-0.18488497 0.38105822 1.594 4291346359
-0.16428858 0.3786906 1.5992726 4291280825
-0.13735394 0.37034887 1.6130002 4291609790
-0.21167988 0.40322992 1.594 4290885810
-0.19302677 0.40682933 1.5981427 4290951858
-0.16402403 0.40696096 1.6086665 4291149238
-0.14216213 0.39081302 1.6160001 4291477690
-0.21726218 0.43648756 1.594 4290754221
-0.19557232 0.43355185 1.6011999 4290754477
-0.16569008 0.43409669 1.6128181 4291017652
-0.24740644 0.46974513 1.594 4290556840
-0.22467138 0.46611699 1.594 4290491562
-0.19577955 0.46409762 1.6103334 4290557098
-0.17159061 0.45599851 1.6160001 4290886066
-0.42103267 0.49654594 1.609 4289307800
-0.41893929 0.50298476 1.601 4289373845
-0.27420133 0.50521994 1.594 4290162341
-0.25488481 0.49615556 1.5962 4290294184
-0.22555113 0.49485359 1.6060909 4290359978
-0.19630082 0.49375612 1.6145 4290425256
-0.42103267 0.51445025 1.609 4289175955
-0.40817595 0.52295732 1.594 4289110159
-0.28004199 0.53187335 1.5968 4290031011
-0.25251937 0.52324796 1.6060001 4290162342
-0.22343233 0.52517784 1.6144445 4290294185
-0.20101908 0.52118397 1.6160001 4290162597
-0.40652689 0.55329466 1.605 4289175697
-0.30099627 0.56286645 1.594 4289701789
-0.28427374 0.55628479 1.6005555 4289833377
-0.25506714 0.55206406 1.6142498 4289899681
-0.22365634 0.54815727 1.6160001 4290096804
-0.40041313 0.58229065 1.5986667 4288912006
-0.31404108 0.58784342 1.5968 4289636249
-0.28557259 0.58567208 1.6078889 4289899423
-0.26116958 0.57705724 1.6160001 4289899424
-0.3938612 0.61699343 1.5963334 4288977798
-0.36351776 0.62051296 1.594 4289504407
-0.34549162 0.61889279 1.598375 4289570200
-0.3156724 0.61377406 1.6027272 4289702300
-0.28908375 0.61317438 1.613 4289899423
0.73163688 0.62458163 1.6160001 4286544762
0.8038125 0.62631953 1.5975 4286281590
0.82679075 0.62677693 1.5986667 4286215800
0.84870833 0.62242526 1.6105 4286150261
-0.85378575 0.65768468 1.609 4284571217
-0.82363874 0.64768779 1.6065 4284506447
-0.798006 0.64860517 1.6055715 4284703056
-0.76511639 0.64615959 1.6026999 4284703571
-0.73364258 0.64612937 1.6026363 4284769363
-0.70416456 0.64654136 1.6036668 4284900691
-0.67726636 0.64506346 1.6073333 4284966231
-0.64634228 0.65116197 1.6024286 4285032023
-0.61459583 0.64896721 1.6032857 4285098072
-0.58562529 0.64407533 1.6029999 4285229146
-0.55353278 0.64342749 1.6085714 4285294937
-0.52541357 0.64511055 1.6111668 4285295197
-0.49558991 0.64470637 1.6085714 4285426523
-0.46563482 0.64357144 1.6073333 4285492061
-0.43616989 0.64315617 1.6078571 4285492063
-0.40595639 0.64567477 1.6088333 4286346854
-0.36947218 0.63972849 1.594 4287662457
-0.34290358 0.64150125 1.6021249 4286281325
-0.31249377 0.6390636 1.6072222 4286412909
-0.28739056 0.64193344 1.6116251 4285492062
-0.25424242 0.64873248 1.609 4285754980
-0.22261833 0.64403534 1.6085 4285886561
-0.19557966 0.6440354 1.6085 4285952353
-0.16596137 0.64342201 1.6085714 4285952357
-0.13652284 0.64641416 1.60325 4285952617
-0.10365534 0.64497483 1.6086 4286018408
-0.073722459 0.64711976 1.605 4286018156
-0.04216307 0.64550698 1.601 4286149739
-0.01307963 0.64719027 1.61075 4286215534
0.018198818 0.64608872 1.6120001 4286215790
0.047840003 0.64511055 1.6111666 4286215791
0.074746154 0.643565 1.6073333 4286216045
0.10426275 0.64356554 1.6057142 4286215791
0.13559143 0.64474672 1.6118572 4286281329
0.16496253 0.64418274 1.6088334 4286150257
0.19268134 0.64063239 1.6062223 4286215535
0.22531848 0.64302981 1.6075714 4286150257
0.25528359 0.64457297 1.6098332 4286216050
0.28189874 0.643565 1.6073333 4286216050
0.31366602 0.64560109 1.6086668 4286281589
0.34607407 0.6387617 1.6043001 4286281589
0.37430477 0.64128542 1.6064285 4286347638
0.40417907 0.6374476 1.6052728 4286413432
0.43395388 0.63926369 1.599375 4286479224
0.46418127 0.63694268 1.6044445 4286545015
0.49563557 0.63778096 1.6068751 4286676348
0.52532703 0.63891596 1.6012499 4286676348
0.55639088 0.64051384 1.6012857 4286611068
0.58611852 0.63927275 1.605 4286545275
0.61448848 0.63753235 1.6056999 4286545019
0.64417696 0.63891596 1.6012499 4286544763
0.67279613 0.64153022 1.6106251 4286545275
0.70417786 0.64144528 1.607625 4286479226
0.73426425 0.63696814 1.602 4286347642
0.76507771 0.63896161 1.607 4286413179
0.79437864 0.63857216 1.604 4286282104
0.8190397 0.63659936 1.601 4286282101
-0.88466495 0.660546 1.6160001 4284374610
-0.8575002 0.660546 1.6160001 4284374611
0.53051466 -0.57406229 1.624 4287264870
0.5274815 -0.55900294 1.624 4287989622
0.44861707 -0.510813 1.624 4291281088
0.46681654 -0.510813 1.624 4291018687
0.49825144 -0.51673764 1.6256001 4290952639
0.51841915 -0.52591097 1.6288749 4290754484
0.44255054 -0.48972997 1.624 4291215809
0.46707699 -0.49300659 1.6248888 4291149759
0.49673694 -0.49532783 1.6325555 4291018174
0.51996851 -0.49331805 1.641 4290688436
0.41221809 -0.46111721 1.624 4291412414
0.43532455 -0.46600986 1.6253333 4291346879
0.46743149 -0.46531978 1.6325001 4291150016
0.49097532 -0.46317396 1.6378 4291083968
0.51983434 -0.46865743 1.6437143 4290556846
0.3849189 -0.42497477 1.624 4291675586
0.4036223 -0.43453184 1.626 4291544257
0.43316612 -0.43676221 1.6343333 4291478209
0.46218562 -0.43634653 1.6431001 4291346882
0.48587903 -0.43697596 1.6454 4291215296
0.38127899 -0.40057865 1.624 4291675843
0.40508592 -0.40433547 1.6318889 4291544259
0.43491304 -0.40656608 1.6408889 4291544003
0.4618921 -0.41495728 1.647 4291478211
0.38100109 -0.37588775 1.6266665 4291741639
0.40616617 -0.37352887 1.63625 4291610308
0.43086135 -0.37966952 1.643 4291675589
-0.54412514 -0.34560615 1.6335 4291808980
-0.53547025 -0.34448963 1.628 4291808977
0.35397977 -0.33732936 1.624 4291741378
0.37798423 -0.34560591 1.6333001 4291872967
0.40251404 -0.3450951 1.6438 4291807432
-0.53449643 -0.31491175 1.6390001 4291677392
0.34687614 -0.31127536 1.6248 4291938756
0.37422419 -0.31449541 1.6368333 4292004551
-0.51595515 -0.27588725 1.624 4291808722
0.2939215 -0.28492284 1.624 4292267724
0.31576091 -0.28130859 1.624 4292333517
0.34258324 -0.28693229 1.6302999 4292070343
0.3684881 -0.28350466 1.6420001 4292004552
-0.51977068 -0.25516826 1.6302 4291874255
0.2939215 -0.24878043 1.624 4292202442
0.31379911 -0.25355598 1.6283635 4292267981
0.34207737 -0.25526416 1.6366667 4292004808
0.36499164 -0.25230378 1.647 4292004553
-0.52326238 -0.22481306 1.647 4292005584
-0.50685537 -0.22167359 1.624 4291874253
0.26434737 -0.21941471 1.624 4292465101
0.28564769 -0.22683211 1.6286665 4292267723
0.31473124 -0.223506 1.6375556 4292333775
0.34404647 -0.22468679 1.6461111 4292070600
0.36576068 -0.23092212 1.647 4292070089
-0.51403379 -0.20190412 1.647 4291874254
0.2588242 -0.19355156 1.6249999 4292530895
0.28633597 -0.19557326 1.6325555 4292399309
0.31500906 -0.19821705 1.6450001 4292465360
0.33961296 -0.19732235 1.647 4292201929
-0.50357926 -0.1557183 1.643 4292137167
0.25844839 -0.16348918 1.6297499 4292596689
0.28841326 -0.16497277 1.6444167 4292465101
0.31192711 -0.1744134 1.647 4292465359
0.33961296 -0.17899519 1.647 4292202184
0.23298529 -0.13398518 1.6251428 4292662481
0.25340346 -0.13124445 1.6392857 4292662480
0.27962697 -0.13448639 1.6470001 4292530637
0.19685765 -0.098186947 1.624 4292794324
0.22186475 -0.10455293 1.6293333 4292662481
0.24847695 -0.10662623 1.6414287 4292596688
-0.49550462 -0.068382621 1.6315 4291939786
0.17562492 -0.077103876 1.624 4292859859
0.19435093 -0.077290446 1.6283332 4292728531
0.22285703 -0.077696607 1.6366667 4292662481
0.24593239 -0.079867743 1.6438 4292596687
-0.49330893 -0.056199819 1.6293334 4291939787
0.16875793 -0.043757688 1.6278999 4292728533
0.19556201 -0.04587001 1.6384999 4292728274
0.22362737 -0.045975972 1.6423334 4292662481
0.24271251 -0.050705135 1.647 4292596687
0.142381 -0.010846704 1.6253333 4292859860
0.16791251 -0.013964987 1.6374444 4292794068
0.19572572 -0.013985223 1.6398889 4292728530
0.21733382 -0.016341727 1.647 4292596944
0.11192676 0.022287814 1.624 4292925653
0.13680851 0.01417337 1.6343637 4292859861
0.16834669 0.013406264 1.6416667 4292728275
0.19349323 0.010385367 1.647 4292794067
0.21502668 0.0042763166 1.647 4292793810
0.084627546 0.058430243 1.624 4292860371
0.10503297 0.04847179 1.6266665 4292794323
0.13402133 0.044025045 1.6397142 4292728274
0.1618652 0.04205678 1.646 4292728273
0.082456827 0.078865707 1.626 4292794323
0.10338679 0.076914378 1.6325555 4292793810
0.13074106 0.076397926 1.6460001 4292728274
0.048275661 0.10821857 1.6253333 4292925908
0.075863503 0.1040669 1.631111 4292925653
0.10382155 0.10459518 1.6393332 4292793810
0.12274054 0.10507565 1.647 4292728272
0.016445629 0.14479597 1.63 4292794065
0.042959709 0.13490818 1.6309334 4292794322
0.076057628 0.13161378 1.6351111 4292794323
0.10123161 0.13332352 1.6401428 4292728272
-0.0094030807 0.17288129 1.624 4292859860
0.01302202 0.16861458 1.63 4292662482
0.04510894 0.16683578 1.6373845 4292728531
0.076318435 0.16405581 1.6409999 4292662737
0.097246423 0.15758297 1.645 4292728016
-0.015476544 0.19418164 1.6257776 4292728273
0.011922158 0.19519454 1.6342223 4292596686
0.044125494 0.1959226 1.6403333 4292728273
0.071983173 0.18754782 1.647 4292794067
-0.015542788 0.22226456 1.6326666 4292596686
0.011956837 0.22336499 1.6407779 4292399308
0.032724582 0.22163898 1.645 4292465100
-0.060968265 0.26173142 1.624 4292267722
-0.041559119 0.26035732 1.6274284 4292333514
-0.016512793 0.2522108 1.6384001 4292465100
0.011997178 0.24252927 1.647 4292333516
-0.060968265 0.28432044 1.624 4292267719
-0.042995594 0.28586152 1.6327777 4292201930
-0.021201622 0.28257778 1.6454 4292333515
-0.069005623 0.31520471 1.6259999 4291873219
-0.043105673 0.31405735 1.6376666 4291872964
-0.10343371 0.35359344 1.624 4291939014
-0.073608086 0.34651008 1.6311429 4291675583
-0.044379596 0.34114644 1.6420001 4291741378
-0.12466642 0.38371211 1.624 4291544258
-0.10657354 0.37509161 1.6257776 4291741893
-0.076483674 0.37708509 1.6380001 4291543998
-0.049526911 0.3647103 1.647 4291741119
-0.13278784 0.40341872 1.6259999 4291478204
-0.10696253 0.40372121 1.6317778 4291544256
-0.084622443 0.40620187 1.6418333 4291412412
-0.15196563 0.4469614 1.624 4291083448
-0.13562752 0.43380833 1.6357 4291280826
-0.10921184 0.43205073 1.6458572 4291478206
-0.089517564 0.43496436 1.647 4291281083
-0.16220284 0.46842092 1.6239998 4290886066
-0.1359583 0.46409771 1.6384444 4291083959
-0.11720341 0.46245506 1.647 4291412412
-0.16616404 0.4938958 1.6297499 4290754736
-0.14157845 0.49220705 1.6443334 4290952373
-0.19122323 0.52903175 1.6262857 4290162338
