# .PCD v0.7 - Point Cloud Data file format
VERSION 0.7
FIELDS x y z rgba
SIZE 4 4 4 4
TYPE F F F U
COUNT 1 1 1 1
WIDTH 1156
HEIGHT 1
VIEWPOINT 0 0 0 1 0 0 0
POINTS 1156
DATA ascii
-0.95128471 -0.61892956 2.0780001 4290953418
-0.94506717 -0.6225037 2.0899999 4290888397
-0.93335634 -0.6225037 2.0899999 4290822859
-0.92737812 -0.62637573 2.1029999 4291019725
-0.91559446 -0.62637573 2.1029999 4291282892
-0.90381074 -0.62637573 2.1029999 4291480274
-0.89202708 -0.62637573 2.1029999 4291480276
-0.89112604 -0.63411981 2.1289999 4291611862
-0.88497812 -0.63828969 2.1429999 4291678676
-0.87297022 -0.63828969 2.1429999 4291480536
-0.86096239 -0.63828969 2.1429999 4291348690
-0.85410458 -0.64216173 2.1559999 4291414739
-0.84202385 -0.64216173 2.1559999 4291414482
-0.82994318 -0.64216173 2.1559999 4291743445
-0.812931 -0.63828969 2.1429999 4291809242
-0.80578178 -0.64216173 2.1559999 4292598758
-0.79885507 -0.64633161 2.1700001 4292730855
-0.78162038 -0.64216173 2.1559999 4292599269
-0.75526261 -0.63024771 2.1159999 4292138718
-0.50981504 -0.46166542 1.55 4291413710
-0.48367128 -0.44558161 1.4960001 4291479761
-0.40366027 -0.39226669 1.317 4291743186
-0.39477625 -0.39077747 1.312 4292006613
-0.3889012 -0.39226669 1.317 4291677143
-0.38152167 -0.39226669 1.317 4291084488
-0.37414217 -0.39226669 1.317 4290952389
-0.36676261 -0.39226669 1.317 4290887107
-0.35938308 -0.39226669 1.317 4291018690
-0.35200354 -0.39226669 1.317 4291084483
-0.34593239 -0.39375597 1.322 4291150015
-0.34134161 -0.39703226 1.3329999 4291215811
-0.33387241 -0.39703226 1.3329999 4291281090
-0.32640323 -0.39703226 1.3329999 4291017918
-0.32013038 -0.39852151 1.3380001 4291281090
-0.31263319 -0.39852151 1.3380001 4290952382
-0.305136 -0.39852151 1.3380001 4291083711
-0.29875103 -0.40001079 1.3430001 4291280577
-0.2925269 -0.40179783 1.349 4291477958
-0.28496805 -0.40179783 1.349 4291281349
-0.27843744 -0.40328708 1.354 4291281604
-0.2708506 -0.40328708 1.354 4291477957
-0.26326373 -0.40328708 1.354 4291544262
-0.256621 -0.40477633 1.359 4291675586
-0.24900615 -0.40477633 1.359 4291610564
-0.24245705 -0.40656343 1.365 4291610055
-0.23566866 -0.40805265 1.37 4291807949
-0.22799216 -0.40805265 1.37 4291807690
-0.22128054 -0.40983978 1.376 4291873484
-0.21434647 -0.41132903 1.381 4291938507
-0.20660834 -0.41132903 1.381 4292070091
-0.19887021 -0.41132903 1.381 4292004300
-0.19196245 -0.4131161 1.387 4292136399
-0.18419071 -0.4131161 1.387 4292070606
-0.17705491 -0.41460535 1.392 4292201677
-0.1699847 -0.41639245 1.398 4292201933
-0.16284722 -0.41817954 1.404 4292005583
-0.15498021 -0.41817954 1.404 4292136910
-0.1471132 -0.41817954 1.404 4292202192
-0.14033714 -0.42145586 1.415 4292333264
-0.13296993 -0.42324299 1.421 4292399058
-0.12500766 -0.42324299 1.421 4292268755
-0.11753961 -0.42503005 1.427 4292662743
-0.10908313 -0.42324299 1.421 4292465876
-0.10154783 -0.42503005 1.427 4292399569
-0.093945287 -0.42681712 1.433 4292071374
-0.085915774 -0.42681712 1.433 4292267981
-0.077886261 -0.42681712 1.433 4292333776
-0.07014925 -0.42860425 1.439 4292662228
-0.06208612 -0.42860425 1.439 4292465361
-0.05424824 -0.43039134 1.4450001 4292531157
-0.046375059 -0.43247625 1.452 4292465363
-0.038239088 -0.43247625 1.452 4292465359
-0.030103115 -0.43247625 1.452 4292334034
-0.022148689 -0.43605044 1.464 4292399566
-0.013945477 -0.43605044 1.464 4292333773
-0.0057422654 -0.43605044 1.464 4292202447
0.002460947 -0.43605044 1.464 4292267724
0.010707865 -0.43783757 1.47 4292333518
0.018944697 -0.43783757 1.47 4292004554
0.027181529 -0.43783757 1.47 4292201676
0.035731584 -0.44170958 1.483 4292333265
0.044219442 -0.44349667 1.489 4292333520
0.052562736 -0.44349667 1.489 4292333517
0.060906027 -0.44349667 1.489 4292267722
0.069249325 -0.44349667 1.489 4292201929
0.077592619 -0.44349667 1.489 4292201929
0.086339913 -0.44558161 1.4960001 4292333774
0.095165648 -0.44766656 1.503 4292399313
0.1040009 -0.44945362 1.5089999 4292333263
0.11245626 -0.44945362 1.5089999 4292201932
0.12147252 -0.45153859 1.516 4292267722
0.12996709 -0.45153859 1.516 4292201929
0.13846169 -0.45153859 1.516 4292201674
0.14763483 -0.45362353 1.523 4292201420
0.15616864 -0.45362353 1.523 4292004554
0.16470245 -0.45362353 1.523 4292070602
0.17391874 -0.45541063 1.529 4292070604
0.18248616 -0.45541063 1.529 4292004811
0.19105358 -0.45541063 1.529 4292004811
0.19962101 -0.45541063 1.529 4292004807
0.20914154 -0.45749557 1.536 4292004553
0.21774819 -0.45749557 1.536 4291939017
0.22738642 -0.45958048 1.543 4291872965
0.23710306 -0.46166542 1.55 4291872966
0.2468982 -0.46375039 1.557 4291807173
0.25562251 -0.46375039 1.557 4291807170
0.26434684 -0.46375039 1.557 4291741379
0.27429882 -0.4658353 1.564 4291544256
0.28451025 -0.46821812 1.572 4291675583
0.29462475 -0.47030303 1.579 4291741378
0.30347234 -0.47030303 1.579 4291741379
0.31231993 -0.47030303 1.579 4291807173
0.3225913 -0.472388 1.586 4291807172
0.33147812 -0.472388 1.586 4291544769
0.3403649 -0.472388 1.586 4291412414
0.34925172 -0.472388 1.586 4291411900
0.35994503 -0.47477078 1.594 4291543741
0.36887667 -0.47477078 1.594 4291609532
0.37946746 -0.47685573 1.601 4291543488
0.39037928 -0.47923848 1.609 4291543748
0.39939499 -0.47923848 1.609 4291478208
0.41018748 -0.48132348 1.6160001 4291412159
0.41924241 -0.48132348 1.6160001 4291412416
0.4304176 -0.48370621 1.624 4291478723
0.43951732 -0.48370621 1.624 4291281346
0.44861707 -0.48370621 1.624 4291281088
0.45771679 -0.48370621 1.624 4291281341
0.46681651 -0.48370621 1.624 4291149761
0.4782607 -0.48608902 1.632 4291150015
0.48740527 -0.48608902 1.632 4291149761
0.49654981 -0.48608902 1.632 4291018688
0.50786346 -0.48817399 1.6390001 4290952382
0.51704723 -0.48817399 1.6390001 4290689465
0.52623105 -0.48817399 1.6390001 4290424488
1.3494855 -1.1896075 3.994 4287131213
1.371865 -1.1896075 3.994 4287196750
1.3942446 -1.1896075 3.994 4287065418
1.4166241 -1.1896075 3.994 4287130961
1.4390036 -1.1896075 3.994 4287262290
1.4445519 -1.1759065 3.948 4286999377
1.4666737 -1.1759065 3.948 4287065685
1.4887956 -1.1759065 3.948 4287065679
1.4936956 -1.1625034 3.9030001 4286999893
1.5155653 -1.1625034 3.9030001 4287000149
1.5201029 -1.1493981 3.859 4286934610
1.5593045 -1.1625034 3.9030001 4287065430
1.5811743 -1.1625034 3.9030001 4286999895
1.584972 -1.1493981 3.859 4286999888
1.6065952 -1.1493981 3.859 4287131218
1.6282182 -1.1493981 3.859 4287196754
1.6686528 -1.1625034 3.9030001 4287131731
1.6714643 -1.1493981 3.859 4286934353
1.6742218 -1.1365905 3.816 4286738003
1.6956038 -1.1365905 3.816 4286999634
1.7169861 -1.1365905 3.816 4286738003
1.7383682 -1.1365905 3.816 4286803796
1.740382 -1.1240809 3.7739999 4286804565
1.7419252 -1.1115713 3.7320001 4286804048
1.7628367 -1.1115713 3.7320001 4286606164
1.8038224 -1.1240809 3.7739999 4286541137
1.8249692 -1.1240809 3.7739999 4286540882
1.8461161 -1.1240809 3.7739999 4286540883
1.8672628 -1.1240809 3.7739999 4286475346
1.8884096 -1.1240809 3.7739999 4286540883
1.9095565 -1.1240809 3.7739999 4286606678
1.9307033 -1.1240809 3.7739999 4286671699
1.909441 -1.0996572 3.6919999 4286540625
1.9301283 -1.0996572 3.6919999 4286343504
1.9302086 -1.0880412 3.6530001 4286343506
1.9506774 -1.0880412 3.6530001 4286474835
1.9501019 -1.0764252 3.6140001 4286606163
-1.1650271 -0.5860312 2.0050001 4289706425
-1.1537925 -0.5860312 2.0050001 4289771454
-1.1488262 -0.58924633 2.016 4289837242
-1.1375301 -0.58924633 2.016 4290034369
-1.1262338 -0.58924633 2.016 4289902532
-1.1215742 -0.59275377 2.0280001 4290099908
-1.1102108 -0.59275377 2.0280001 4290165700
-1.0988473 -0.59275377 2.0280001 4290493894
-1.0874838 -0.59275377 2.0280001 4290297288
-1.0824878 -0.59626108 2.04 4290363332
-1.0710572 -0.59626108 2.04 4290494919
-1.0596263 -0.59626108 2.04 4290625988
-1.0481956 -0.59626108 2.04 4290625990
-1.036765 -0.59626108 2.04 4290428105
-1.0318682 -0.60006082 2.053 4290756812
-1.0327901 -0.60736799 2.0780001 4290363082
-1.0211464 -0.60736799 2.0780001 4290691786
-1.0153325 -0.61087537 2.0899999 4290559690
-0.99785918 -0.60736799 2.0780001 4290822856
-0.9800458 -0.60356832 2.0650001 4290954444
-0.96847498 -0.60356832 2.0650001 4290954694
-0.9629283 -0.60736799 2.0780001 4291020489
-0.95128471 -0.60736799 2.0780001 4290954444
-0.94506717 -0.61087537 2.0899999 4290691020
-0.9391619 -0.61467505 2.1029999 4290823367
-0.92737812 -0.61467505 2.1029999 4290954187
-0.91559446 -0.61467505 2.1029999 4291151308
-0.90381074 -0.61467505 2.1029999 4291283407
-0.89754122 -0.61847478 2.1159999 4291414738
-0.89698589 -0.62636644 2.1429999 4291546069
-0.88497812 -0.62636644 2.1429999 4291612371
-0.87297022 -0.62636644 2.1429999 4291678166
-0.86096239 -0.62636644 2.1429999 4291546068
-0.85410458 -0.63016611 2.1559999 4291414479
-0.84202385 -0.63016611 2.1559999 4291414221
-0.82994318 -0.63016611 2.1559999 4291743187
-0.81786251 -0.63016611 2.1559999 4291678167
-0.81101424 -0.63425821 2.1700001 4292467422
-0.79885507 -0.63425821 2.1700001 4292665062
-0.78162038 -0.63016611 2.1559999 4292599269
-0.75526261 -0.61847478 2.1159999 4292270304
-0.70827347 -0.58924633 2.016 4291743447
-0.68107396 -0.57580119 1.97 4291480531
-0.50981504 -0.45304152 1.55 4291611343
-0.49240065 -0.44514987 1.523 4291479757
-0.40366027 -0.38493919 1.317 4291808722
-0.39778522 -0.38640061 1.322 4292006612
-0.3889012 -0.38493919 1.317 4291742936
-0.38152167 -0.38493919 1.317 4291150279
-0.37556258 -0.38640061 1.322 4291150020
-0.36815503 -0.38640061 1.322 4290953152
-0.36074749 -0.38640061 1.322 4290953152
-0.35333994 -0.38640061 1.322 4291018432
-0.34593239 -0.38640061 1.322 4291150274
-0.34134161 -0.38961571 1.3329999 4291215811
-0.33387241 -0.38961571 1.3329999 4291215556
-0.3276276 -0.39107719 1.3380001 4291215040
-0.32013038 -0.39107719 1.3380001 4291346880
-0.31263319 -0.39107719 1.3380001 4291083457
-0.30627626 -0.39253861 1.3430001 4291084220
-0.29875103 -0.39253861 1.3430001 4291280318
-0.2925269 -0.39429227 1.349 4291478212
-0.28496805 -0.39429227 1.349 4291281347
-0.27843744 -0.39575371 1.354 4291478724
-0.2708506 -0.39575371 1.354 4291478985
-0.26423591 -0.39721513 1.359 4291413190
-0.256621 -0.39721513 1.359 4291544773
-0.24900615 -0.39721513 1.359 4291676614
-0.24334516 -0.40043026 1.37 4291872714
-0.23566866 -0.40043026 1.37 4291807948
-0.22799216 -0.40043026 1.37 4291676106
-0.22128054 -0.40218401 1.376 4291807944
-0.21434647 -0.40364543 1.381 4291873739
-0.20660834 -0.40364543 1.381 4291873738
-0.19973423 -0.40539911 1.387 4292070349
-0.19196245 -0.40539911 1.387 4292136399
-0.18419071 -0.40539911 1.387 4292267472
-0.17705491 -0.40686053 1.392 4292136399
-0.16925515 -0.40686053 1.392 4292136394
-0.16284722 -0.41036797 1.404 4292071120
-0.15498021 -0.41036797 1.404 4292070863
-0.1471132 -0.41036797 1.404 4292136910
-0.14033714 -0.41358307 1.415 4292202192
-0.13296993 -0.41533682 1.421 4292333265
-0.12500766 -0.41533682 1.421 4292531157
-0.11753961 -0.41709054 1.427 4292662743
-0.10954373 -0.41709054 1.427 4292465878
-0.10154783 -0.41709054 1.427 4292268754
-0.093945287 -0.41884422 1.433 4292333773
-0.08627551 -0.42059794 1.439 4292399308
-0.07821238 -0.42059794 1.439 4292333518
-0.07014925 -0.42059794 1.439 4292465359
-0.06208612 -0.42059794 1.439 4292400082
-0.05424824 -0.42235163 1.4450001 4292729048
-0.046375059 -0.42439762 1.452 4292596436
-0.038239088 -0.42439762 1.452 4292465364
-0.030103115 -0.42439762 1.452 4292530899
-0.022148689 -0.42790505 1.464 4292399566
-0.013945477 -0.42790505 1.464 4292399057
-0.0057422654 -0.42790505 1.464 4292333518
0.0024710328 -0.42965877 1.47 4292136906
0.010707865 -0.42965877 1.47 4292137163
0.018944697 -0.42965877 1.47 4292136649
0.027310964 -0.43170476 1.477 4292267981
0.035731584 -0.43345848 1.483 4292465102
0.044219442 -0.43521217 1.489 4292465102
0.052562736 -0.43521217 1.489 4292333519
0.060906027 -0.43521217 1.489 4292399311
0.069249325 -0.43521217 1.489 4292201677
0.077592619 -0.43521217 1.489 4292201676
0.086339913 -0.43725818 1.4960001 4292333519
0.095165648 -0.43930417 1.503 4292399570
0.1040009 -0.44105786 1.5089999 4292399312
0.1134996 -0.44514987 1.523 4292333518
0.12203342 -0.44514987 1.523 4292267723
0.13056722 -0.44514987 1.523 4292267723
0.13910103 -0.44514987 1.523 4292267724
0.14763483 -0.44514987 1.523 4292070091
0.15616864 -0.44514987 1.523 4292004811
0.16470245 -0.44514987 1.523 4292070857
0.17323625 -0.44514987 1.523 4292136141
0.18248616 -0.44690359 1.529 4292005066
0.19105358 -0.44690359 1.529 4292070602
0.19962101 -0.44690359 1.529 4292004809
0.20818844 -0.44690359 1.529 4292070347
0.21874054 -0.45099553 1.543 4292004810
0.22944954 -0.45508754 1.557 4292004552
0.23817387 -0.45508754 1.557 4291872968
0.2468982 -0.45508754 1.557 4291872715
0.25562251 -0.45508754 1.557 4291872708
0.26553527 -0.45713353 1.564 4291675587
0.27429882 -0.45713353 1.564 4291741121
0.28306234 -0.45713353 1.564 4291609537
0.2933186 -0.45947182 1.572 4291675587
0.30212697 -0.45947182 1.572 4291807426
0.31231993 -0.46151781 1.579 4291807431
0.3225913 -0.46356377 1.586 4291545030
0.33147812 -0.46356377 1.586 4291741634
0.3403649 -0.46356377 1.586 4291478204
0.34925172 -0.46356377 1.586 4291478203
0.35813856 -0.46356377 1.586 4291609531
0.3704966 -0.46794805 1.601 4291544257
0.3813636 -0.47028634 1.609 4291544001
0.39207768 -0.47233239 1.6160001 4291609281
0.40113261 -0.47233239 1.6160001 4291478206
0.41018748 -0.47233239 1.6160001 4291412672
0.42131785 -0.47467062 1.624 4291478465
0.4304176 -0.47467062 1.624 4291412672
0.43951732 -0.47467062 1.624 4291280829
0.44861707 -0.47467062 1.624 4291215550
0.45771679 -0.47467062 1.624 4291215804
0.46681651 -0.47467062 1.624 4291084225
0.4782607 -0.47700891 1.632 4291084225
0.48501602 -0.47467062 1.624 4291018433
0.49654981 -0.47700891 1.632 4291149507
0.5103423 -0.48139316 1.647 4291083968
0.51957095 -0.48139316 1.647 4290820538
0.52398348 -0.47700891 1.632 4290292635
1.3653657 -1.1811231 4.0409999 4287131730
1.3880086 -1.1811231 4.0409999 4287263312
1.3942446 -1.1673857 3.994 4287065937
1.4166241 -1.1673857 3.994 4287131215
1.4390036 -1.1673857 3.994 4287130966
1.4613831 -1.1673857 3.994 4286999633
1.4666737 -1.1539407 3.948 4286935121
1.5061421 -1.1673857 3.994 4287131471
1.5109173 -1.1539407 3.948 4287131472
1.5155653 -1.140788 3.9030001 4286803283
1.5201029 -1.1279273 3.859 4287000143
1.5417259 -1.1279273 3.859 4287065681
1.5811743 -1.140788 3.9030001 4287000144
1.584972 -1.1279273 3.859 4287065679
1.6065952 -1.1279273 3.859 4287131477
1.6282182 -1.1279273 3.859 4287065428
1.6498413 -1.1279273 3.859 4286738000
1.6714643 -1.1279273 3.859 4286737488
1.6557947 -1.1030831 3.7739999 4286934101
1.6769415 -1.1030831 3.7739999 4286738004
1.6980884 -1.1030831 3.7739999 4286672213
1.7192352 -1.1030831 3.7739999 4286804047
1.740382 -1.1030831 3.7739999 4287065938
1.7419252 -1.0908072 3.7320001 4286672723
1.7628367 -1.0908072 3.7320001 4286606929
1.8038224 -1.1030831 3.7739999 4286607181
1.8249692 -1.1030831 3.7739999 4286475602
1.8461161 -1.1030831 3.7739999 4286475603
1.8672628 -1.1030831 3.7739999 4286671953
1.8884096 -1.1030831 3.7739999 4286541136
1.9095565 -1.1030831 3.7739999 4286541137
1.9307033 -1.1030831 3.7739999 4286540883
1.9301286 -1.0908072 3.7320001 4286343759
1.9510399 -1.0908072 3.7320001 4286277972
1.9508158 -1.0791156 3.6919999 4286343763
1.9506774 -1.0677166 3.6530001 4286474579
1.9711461 -1.0677166 3.6530001 4286540625
-1.1650271 -0.57487577 2.0050001 4289837501
-1.1601225 -0.57802969 2.016 4289968579
-1.1488262 -0.57802969 2.016 4289837250
-1.1375301 -0.57802969 2.016 4290034113
-1.1329377 -0.58147037 2.0280001 4289968838
-1.1215742 -0.58147037 2.0280001 4290034626
-1.1102108 -0.58147037 2.0280001 4290231235
-1.1053493 -0.58491099 2.04 4290034369
-1.0939186 -0.58491099 2.04 4290231752
-1.0824878 -0.58491099 2.04 4290428612
-1.0710572 -0.58491099 2.04 4290428358
-1.0596263 -0.58491099 2.04 4290691529
-1.0481956 -0.58491099 2.04 4290363077
-1.036765 -0.58491099 2.04 4290297541
-1.0318682 -0.58863837 2.053 4290560197
-1.0327901 -0.59580642 2.0780001 4290428610
-1.0211464 -0.59580642 2.0780001 4290494662
-1.0153325 -0.59924704 2.0899999 4290363078
-0.99785918 -0.59580642 2.0780001 4290823117
-0.98621559 -0.59580642 2.0780001 4290757066
-0.97457194 -0.59580642 2.0780001 4290823114
-0.96848893 -0.59924704 2.0899999 4290822858
-0.95677799 -0.59924704 2.0899999 4291019978
-0.94506717 -0.59924704 2.0899999 4290822348
-0.9391619 -0.60297441 2.1029999 4290953675
-0.92737812 -0.60297441 2.1029999 4290953934
-0.91559446 -0.60297441 2.1029999 4291151566
-0.90939778 -0.60670179 2.1159999 4291283154
-0.90305543 -0.61042917 2.1289999 4291414484
-0.89698589 -0.61444324 2.1429999 4291611860
-0.88497812 -0.61444324 2.1429999 4291743700
-0.87297022 -0.61444324 2.1429999 4291743700
-0.86096239 -0.61444324 2.1429999 4291611861
-0.84895456 -0.61444324 2.1429999 4291414483
-0.84202385 -0.61817062 2.1559999 4291348689
-0.82994318 -0.61817062 2.1559999 4291677395
-0.81786251 -0.61817062 2.1559999 4291940824
-0.80578178 -0.61817062 2.1559999 4292401375
-0.79885507 -0.62218475 2.1700001 4292928230
-0.78162038 -0.61817062 2.1559999 4292730594
-0.75526261 -0.60670179 2.1159999 4292270047
-0.70440888 -0.57487577 2.0050001 4291809240
-0.68107396 -0.5648405 1.97 4291677395
-0.50751269 -0.44241062 1.543 4291545296
-0.49660367 -0.44040355 1.536 4291677134
-0.40703174 -0.38076559 1.3279999 4291742422
-0.39778522 -0.37904525 1.322 4291940565
-0.3889012 -0.37761167 1.317 4291940565
-0.38152167 -0.37761167 1.317 4291150538
-0.37556258 -0.37904525 1.322 4290887619
-0.36815503 -0.37904525 1.322 4291018432
-0.36238474 -0.38076559 1.3279999 4291018182
-0.35494357 -0.38076559 1.3279999 4291281091
-0.34750241 -0.38076559 1.3279999 4291149761
-0.34134161 -0.38219917 1.3329999 4291215813
-0.33387241 -0.38219917 1.3329999 4291215300
-0.3276276 -0.38363281 1.3380001 4291149760
-0.32013038 -0.38363281 1.3380001 4291083708
-0.31380147 -0.38506642 1.3430001 4291214783
-0.30627626 -0.38506642 1.3430001 4291412415
-0.30008572 -0.38678673 1.349 4291412671
-0.2925269 -0.38678673 1.349 4291478466
-0.28496805 -0.38678673 1.349 4291413187
-0.27843744 -0.38822031 1.354 4291544258
-0.2708506 -0.38822031 1.354 4291610053
-0.26423591 -0.38965395 1.359 4291610053
-0.256621 -0.38965395 1.359 4291544006
-0.25010553 -0.39137426 1.365 4291872968
-0.24334516 -0.39280787 1.37 4291807434
-0.2367008 -0.39452821 1.376 4291873226
-0.22982275 -0.39596179 1.381 4291938252
-0.22208463 -0.39596179 1.381 4291807690
-0.21527773 -0.39768213 1.387 4291873227
-0.20750599 -0.39768213 1.387 4292004560
-0.19973423 -0.39768213 1.387 4292136398
-0.19196245 -0.39768213 1.387 4292136398
-0.18419071 -0.39768213 1.387 4292005327
-0.17705491 -0.39911571 1.392 4292005070
-0.1699847 -0.40083608 1.398 4292135885
-0.16284722 -0.40255639 1.404 4292201937
-0.15498021 -0.40255639 1.404 4292333264
-0.14774188 -0.4042767 1.41 4292333264
-0.13984126 -0.4042767 1.41 4292333518
-0.13296993 -0.40743065 1.421 4292530900
-0.1255355 -0.40915099 1.427 4292531156
-0.11803382 -0.4108713 1.433 4292597464
-0.11000431 -0.4108713 1.433 4292400339
-0.1019748 -0.4108713 1.433 4292400083
-0.094338633 -0.41259161 1.439 4292333776
-0.08627551 -0.41259161 1.439 4292465101
-0.07821238 -0.41259161 1.439 4292399306
-0.07014925 -0.41259161 1.439 4292531411
-0.062344991 -0.41431198 1.4450001 4292596948
-0.054511033 -0.41631901 1.452 4292662742
-0.046375059 -0.41631901 1.452 4292465362
-0.038239088 -0.41631901 1.452 4292465617
-0.030227507 -0.41803929 1.4579999 4292465360
-0.022148689 -0.41975966 1.464 4292399567
-0.014002631 -0.42147997 1.47 4292399056
-0.005765799 -0.42147997 1.47 4292333517
0.0024710328 -0.42147997 1.47 4292267723
0.010758854 -0.42348704 1.477 4292399052
0.018944697 -0.42147997 1.47 4292267470
0.027310964 -0.42348704 1.477 4292464849
0.035731584 -0.42520738 1.483 4292465363
0.044219442 -0.42692766 1.489 4292465105
0.052562736 -0.42692766 1.489 4292464844
0.060906027 -0.42692766 1.489 4292267471
0.069249325 -0.42692766 1.489 4292201677
0.077957399 -0.42893475 1.4960001 4292201675
0.086339913 -0.42893475 1.4960001 4292399569
0.095165648 -0.43094179 1.503 4292465363
0.1040009 -0.43266207 1.5089999 4292465361
0.11297794 -0.43466914 1.516 4292399311
0.12203342 -0.4366762 1.523 4292267470
0.13056722 -0.4366762 1.523 4292333519
0.13910103 -0.4366762 1.523 4292267474
0.14821646 -0.43839654 1.529 4292070348
0.15678388 -0.43839654 1.529 4292201932
0.1653513 -0.43839654 1.529 4292267469
0.17391874 -0.43839654 1.529 4292201929
0.18248616 -0.43839654 1.529 4292070343
0.19192825 -0.44040355 1.536 4292136138
0.20053491 -0.44040355 1.536 4292135884
0.20914154 -0.44040355 1.536 4292070091
0.21874054 -0.44241062 1.543 4292070091
0.22944954 -0.44642472 1.557 4292004551
0.23817387 -0.44642472 1.557 4291807432
0.2468982 -0.44642472 1.557 4291873224
0.25677171 -0.44843176 1.564 4291807427
0.26553527 -0.44843176 1.564 4291741380
0.27429882 -0.44843176 1.564 4291741121
0.28306234 -0.44843176 1.564 4291675324
0.2933186 -0.45072556 1.572 4291807170
0.30347234 -0.45273256 1.579 4291872964
0.31370446 -0.4547396 1.586 4291873475
0.3225913 -0.4547396 1.586 4291676615
0.33147812 -0.4547396 1.586 4291675587
0.3403649 -0.4547396 1.586 4291478207
0.35101339 -0.45703337 1.594 4291477948
0.35994503 -0.45703337 1.594 4291609534
0.3704966 -0.45904043 1.601 4291609794
0.38302279 -0.46334127 1.6160001 4291609282
0.39207768 -0.46334127 1.6160001 4291544001
0.40113261 -0.46334127 1.6160001 4291544253
0.41221809 -0.465635 1.624 4291478208
0.42131785 -0.465635 1.624 4291478466
0.4304176 -0.465635 1.624 4291346880
0.43951732 -0.465635 1.624 4291412928
0.44861707 -0.465635 1.624 4291347132
0.45997155 -0.4679288 1.632 4291084477
0.46911612 -0.4679288 1.632 4291150017
0.4782607 -0.4679288 1.632 4291215299
0.48740527 -0.4679288 1.632 4291084225
0.49654981 -0.4679288 1.632 4291083969
0.5103423 -0.4722296 1.647 4291017918
0.51957095 -0.4722296 1.647 4290886331
0.52623105 -0.46993586 1.6390001 4290029725
1.3586721 -1.1724026 4.0890002 4287262799
1.3653657 -1.1586398 4.0409999 4287197778
1.3880086 -1.1586398 4.0409999 4287131981
1.3942446 -1.1451639 3.994 4287197262
1.4166241 -1.1451639 3.994 4287197006
1.4390036 -1.1451639 3.994 4287131215
1.4445519 -1.1319748 3.948 4287000393
1.4666737 -1.1319748 3.948 4287131470
1.4887956 -1.1319748 3.948 4287197006
1.5109173 -1.1319748 3.948 4287065680
1.5155653 -1.1190724 3.9030001 4286934610
1.5201029 -1.1064566 3.859 4287065424
1.5593045 -1.1190724 3.9030001 4286933584
1.5811743 -1.1190724 3.9030001 4286934095
1.584972 -1.1064566 3.859 4287000392
1.6065952 -1.1064566 3.859 4286869077
1.6100754 -1.0941277 3.816 4286999888
1.6498413 -1.1064566 3.859 4286934354
1.6714643 -1.1064566 3.859 4286737999
1.6742218 -1.0941277 3.816 4286869075
1.6956038 -1.0941277 3.816 4286671955
1.7169861 -1.0941277 3.816 4286672210
1.7192352 -1.0820853 3.7739999 4286672974
1.740382 -1.0820853 3.7739999 4286738254
1.7615288 -1.0820853 3.7739999 4286738003
1.7628367 -1.0700431 3.7320001 4286671698
1.8038224 -1.0820853 3.7739999 4286671699
1.8249692 -1.0820853 3.7739999 4286409040
1.8461161 -1.0820853 3.7739999 4286409040
1.8672628 -1.0820853 3.7739999 4286475088
1.8884096 -1.0820853 3.7739999 4286475344
1.9095565 -1.0820853 3.7739999 4286606163
1.909217 -1.0700431 3.7320001 4286540887
1.9301286 -1.0700431 3.7320001 4286343246
1.9510399 -1.0700431 3.7320001 4286409040
1.9719514 -1.0700431 3.7320001 4286277715
1.9506774 -1.0473921 3.6530001 4286343247
1.9711461 -1.0473921 3.6530001 4286408786
-1.1714187 -0.56681305 2.016 4289705404
-1.1601225 -0.56681305 2.016 4290034369
-1.1488262 -0.56681305 2.016 4289837250
-1.1375301 -0.56681305 2.016 4290165441
-1.1329377 -0.57018697 2.0280001 4290100162
-1.1215742 -0.57018697 2.0280001 4290100419
-1.1102108 -0.57018697 2.0280001 4290362563
-1.1053493 -0.57356083 2.04 4290494405
-1.0874838 -0.57018697 2.0280001 4290494663
-1.0761204 -0.57018697 2.0280001 4290494919
-1.0710572 -0.57356083 2.04 4290429125
-1.0596263 -0.57356083 2.04 4290625990
-1.0481956 -0.57356083 2.04 4290626505
-1.0433718 -0.57721585 2.053 4290296521
-1.0318682 -0.57721585 2.053 4290822858
-1.0263289 -0.58058977 2.0650001 4290626246
-1.0211464 -0.58424479 2.0780001 4290428616
-1.0095029 -0.58424479 2.0780001 4290625481
-1.0036216 -0.58761865 2.0899999 4290822604
-0.99191064 -0.58761865 2.0899999 4290757066
-0.98019981 -0.58761865 2.0899999 4291020491
-0.97451299 -0.59127373 2.1029999 4290822857
-0.96272933 -0.59127373 2.1029999 4290888394
-0.95094562 -0.59127373 2.1029999 4291086028
-0.9391619 -0.59127373 2.1029999 4290822859
-0.92737812 -0.59127373 2.1029999 4290888652
-0.91559446 -0.59127373 2.1029999 4291086030
-0.90939778 -0.5949288 2.1159999 4291283408
-0.89754122 -0.5949288 2.1159999 4291414738
-0.89112604 -0.59858382 2.1289999 4291546580
-0.87919664 -0.59858382 2.1289999 4291677652
-0.87297022 -0.60251999 2.1429999 4291677654
-0.86096239 -0.60251999 2.1429999 4291546068
-0.84895456 -0.60251999 2.1429999 4291546066
-0.84202385 -0.60617507 2.1559999 4291348941
-0.82994318 -0.60617507 2.1559999 4291677393
-0.81786251 -0.60617507 2.1559999 4291611859
-0.81101424 -0.6101113 2.1700001 4292335584
-0.79885507 -0.6101113 2.1700001 4292730853
-0.78669596 -0.6101113 2.1700001 4292665060
-0.76953971 -0.60617507 2.1559999 4292335842
-0.75289184 -0.60251999 2.1429999 4291875033
-0.68107396 -0.5538798 1.97 4291677397
-0.50751269 -0.43382567 1.543 4291545548
-0.49434051 -0.4298895 1.529 4291480270
-0.40703174 -0.37337685 1.3279999 4291742929
-0.39778522 -0.37168992 1.322 4291940566
-0.39037767 -0.37168992 1.322 4291808979
-0.38297009 -0.37168992 1.322 4291150538
-0.37556258 -0.37168992 1.322 4291018692
-0.36815503 -0.37168992 1.322 4291018434
-0.36238474 -0.37337685 1.3279999 4291018178
-0.35494357 -0.37337685 1.3279999 4291083712
-0.34750241 -0.37337685 1.3279999 4291216322
-0.34134161 -0.37478262 1.3329999 4291346883
-0.33387241 -0.37478262 1.3329999 4291216324
-0.3276276 -0.37618846 1.3380001 4291216065
-0.32132667 -0.37759423 1.3430001 4291281600
-0.31380147 -0.37759423 1.3430001 4291280830
-0.30627626 -0.37759423 1.3430001 4291346364
-0.30008572 -0.37928116 1.349 4291412674
-0.29361111 -0.38068694 1.354 4291478467
-0.28602427 -0.38068694 1.354 4291412935
-0.27843744 -0.38068694 1.354 4291544258
-0.27185076 -0.38209271 1.359 4291610051
-0.26423591 -0.38209271 1.359 4291610057
-0.256621 -0.38209271 1.359 4291544260
-0.25010553 -0.38377967 1.365 4291873738
-0.24441093 -0.38687241 1.376 4291807432
-0.2375609 -0.38827822 1.381 4292004299
-0.22982275 -0.38827822 1.381 4292004553
-0.22208463 -0.38827822 1.381 4292004553
-0.21527773 -0.38996512 1.387 4292004300
-0.20750599 -0.38996512 1.387 4292135885
-0.19973423 -0.38996512 1.387 4292070861
-0.19265448 -0.39137092 1.392 4292137167
-0.18485469 -0.39137092 1.392 4292136653
-0.17781809 -0.39305788 1.398 4292136397
-0.17071424 -0.39474484 1.404 4292136141
-0.16284722 -0.39474484 1.404 4292201937
-0.15564252 -0.39643174 1.41 4292399055
-0.14774188 -0.39643174 1.41 4292399056
-0.13984126 -0.39643174 1.41 4292333777
-0.13296993 -0.39952451 1.421 4292400083
-0.1255355 -0.40121144 1.427 4292531412
-0.11803382 -0.40289834 1.433 4292662743
-0.11000431 -0.40289834 1.433 4292596948
-0.1019748 -0.40289834 1.433 4292531670
-0.094338633 -0.4045853 1.439 4292399571
-0.08627551 -0.4045853 1.439 4292333775
-0.078538492 -0.40627226 1.4450001 4292334287
-0.070441745 -0.40627226 1.4450001 4292531153
-0.062344991 -0.40627226 1.4450001 4292662483
-0.054736283 -0.40992731 1.4579999 4292596948
-0.046566691 -0.40992731 1.4579999 4292596691
-0.038239088 -0.40824038 1.452 4292530898
-0.030227507 -0.40992731 1.4579999 4292530643
-0.022148689 -0.41161427 1.464 4292333520
-0.013945477 -0.41161427 1.464 4292267724
-0.005765799 -0.41330123 1.47 4292267724
0.0024710328 -0.41330123 1.47 4292267724
0.010758854 -0.41526929 1.477 4292465103
0.018944697 -0.41330123 1.47 4292465362
0.027310964 -0.41526929 1.477 4292465106
0.03558702 -0.41526929 1.477 4292530642
0.044219442 -0.41864318 1.489 4292465362
0.052562736 -0.41864318 1.489 4292530894
0.060906027 -0.41864318 1.489 4292267724
0.069574878 -0.42061129 1.4960001 4292069835
0.077957399 -0.42061129 1.4960001 4292399307
0.086339913 -0.42061129 1.4960001 4292596687
0.095165648 -0.42257938 1.503 4292596434
0.1040009 -0.42426631 1.5089999 4292399057
0.11297794 -0.42623442 1.516 4292333262
0.12203342 -0.42820254 1.523 4292333263
0.13056722 -0.42820254 1.523 4292267726
0.13910103 -0.42820254 1.523 4292201677
0.14763483 -0.42820254 1.523 4292267725
0.15678388 -0.4298895 1.529 4292267725
0.1653513 -0.4298895 1.529 4292333263
0.17391874 -0.4298895 1.529 4292136136
0.18248616 -0.4298895 1.529 4292070343
0.19192825 -0.43185756 1.536 4292136140
0.20053491 -0.43185756 1.536 4292201675
0.21009466 -0.43382567 1.543 4292135884
0.21973288 -0.43579376 1.55 4292070344
0.22944954 -0.43776187 1.557 4291938757
0.23817387 -0.43776187 1.557 4292004807
0.2468982 -0.43776187 1.557 4292070344
0.25677171 -0.43972999 1.564 4291872965
0.26689351 -0.44197926 1.572 4291807172
0.27570188 -0.44197926 1.572 4291741122
0.28451025 -0.44197926 1.572 4291544000
0.29462475 -0.44394732 1.579 4291807427
0.30481768 -0.44591543 1.586 4291938757
0.31370446 -0.44591543 1.586 4292004550
0.3225913 -0.44591543 1.586 4291938762
0.33147812 -0.44591543 1.586 4291806914
0.3403649 -0.44591543 1.586 4291543742
0.35101339 -0.4481647 1.594 4291412414
0.35994503 -0.4481647 1.594 4291543999
0.3704966 -0.45013279 1.601 4291610048
0.38302279 -0.45435014 1.6160001 4291412929
0.39207768 -0.45435014 1.6160001 4291478468
0.40113261 -0.45435014 1.6160001 4291544258
0.41221809 -0.45659941 1.624 4291412413
0.42131785 -0.45659941 1.624 4291478207
0.43253785 -0.45884869 1.632 4291478208
0.44168246 -0.45884869 1.632 4291346881
0.44861707 -0.45659941 1.624 4291215549
0.45997155 -0.45884869 1.632 4291281088
0.47112828 -0.46081677 1.6390001 4291347139
0.48031205 -0.46081677 1.6390001 4291084479
0.4894959 -0.46081677 1.6390001 4291018689
0.50111371 -0.46306601 1.647 4291149758
0.5103423 -0.46306601 1.647 4291083968
0.51957095 -0.46306601 1.647 4290821307
0.52879953 -0.46306601 1.647 4289897370
1.3752859 -1.1637099 4.1389999 4287393872
1.381584 -1.1496521 4.0890002 4287328078
1.3880086 -1.1361566 4.0409999 4287197513
1.4106516 -1.1361566 4.0409999 4287197002
1.4166241 -1.1229421 3.994 4287131463
1.4390036 -1.1229421 3.994 4287197009
1.4613831 -1.1229421 3.994 4287197003
1.4666737 -1.110009 3.948 4287131729
1.4887956 -1.110009 3.948 4287196754
1.5109173 -1.110009 3.948 4287000404
1.5330391 -1.110009 3.948 4286999632
1.5374349 -1.0973568 3.9030001 4286802761
1.5593045 -1.0973568 3.9030001 4286737228
1.563349 -1.0849859 3.859 4286802768
1.584972 -1.0849859 3.859 4286803281
1.6065952 -1.0849859 3.859 4286803538
1.6282182 -1.0849859 3.859 4286803281
1.6498413 -1.0849859 3.859 4286737741
1.6714643 -1.0849859 3.859 4286671948
1.6930875 -1.0849859 3.859 4286737743
1.7147106 -1.0849859 3.859 4286606160
1.7169861 -1.0728961 3.816 4286802513
1.7383682 -1.0728961 3.816 4286738254
1.7597502 -1.0728961 3.816 4286803281
1.7615288 -1.0610876 3.7739999 4286671443
1.7628367 -1.049279 3.7320001 4286671953
1.8038224 -1.0610876 3.7739999 4286540368
1.8249692 -1.0610876 3.7739999 4286540113
1.8461161 -1.0610876 3.7739999 4286474320
1.8672628 -1.0610876 3.7739999 4286474831
1.8884096 -1.0610876 3.7739999 4286540113
1.9095565 -1.0610876 3.7739999 4286474833
1.909217 -1.049279 3.7320001 4286474833
1.9301286 -1.049279 3.7320001 4286277710
1.9510399 -1.049279 3.7320001 4286474833
1.9719514 -1.049279 3.7320001 4286474834
1.9715029 -1.0380327 3.6919999 4286277968
-1.1714187 -0.55559641 2.016 4289836476
-1.1601225 -0.55559641 2.016 4289969091
-1.1488262 -0.55559641 2.016 4289903039
-1.1375301 -0.55559641 2.016 4289903295
-1.1329377 -0.55890363 2.0280001 4290099391
-1.1215742 -0.55890363 2.0280001 4290296772
-1.1102108 -0.55890363 2.0280001 4290099907
-1.1053493 -0.56221068 2.04 4290231237
-1.0939186 -0.56221068 2.04 4290494663
-1.0761204 -0.55890363 2.0280001 4290231748
-1.0710572 -0.56221068 2.04 4290559686
-1.0596263 -0.56221068 2.04 4290297541
-1.0481956 -0.56221068 2.04 4290428612
-1.0433718 -0.5657934 2.053 4290494150
-1.0318682 -0.5657934 2.053 4290559943
-1.0263289 -0.5691005 2.0650001 4290559943
-1.0211464 -0.57268327 2.0780001 4290757576
-1.0095029 -0.57268327 2.0780001 4290494408
-1.0036216 -0.57599038 2.0899999 4290691270
-0.99191064 -0.57599038 2.0899999 4290757064
-0.98019981 -0.57599038 2.0899999 4290822605
-0.97451299 -0.57957304 2.1029999 4291019980
-0.96272933 -0.57957304 2.1029999 4290822858
-0.95094562 -0.57957304 2.1029999 4290888650
-0.9391619 -0.57957304 2.1029999 4291019725
-0.92737812 -0.57957304 2.1029999 4291151822
-0.92125434 -0.58315575 2.1159999 4291020236
-0.90939778 -0.58315575 2.1159999 4291283156
-0.89754122 -0.58315575 2.1159999 4291414478
-0.89112604 -0.58673853 2.1289999 4291612118
-0.87919664 -0.58673853 2.1289999 4291612115
-0.87297022 -0.5905968 2.1429999 4291875288
-0.86096239 -0.5905968 2.1429999 4291611861
-0.85410458 -0.59417951 2.1559999 4291480275
-0.84202385 -0.59417951 2.1559999 4291546320
-0.82994318 -0.59417951 2.1559999 4291940565
-0.82317334 -0.5980379 2.1700001 4291875285
-0.81101424 -0.5980379 2.1700001 4292204250
-0.79885507 -0.5980379 2.1700001 4292796135
-0.78669596 -0.5980379 2.1700001 4292730090
-0.77453685 -0.5980379 2.1700001 4292401635
-0.75289184 -0.5905968 2.1429999 4292072410
-0.67727101 -0.53988767 1.959 4291743188
-0.50712663 -0.41779974 1.516 4291480021
-0.50981504 -0.42716989 1.55 4291545550
-0.49660367 -0.42331159 1.536 4291611343
-0.39959055 -0.36598814 1.3279999 4292006358
-0.39214942 -0.36598814 1.3279999 4292072405
-0.38297009 -0.36433458 1.322 4291282379
-0.37556258 -0.36433458 1.322 4290953415
-0.36815503 -0.36433458 1.322 4291018691
-0.36238474 -0.36598814 1.3279999 4291346629
-0.35494357 -0.36598814 1.3279999 4291347143
-0.34750241 -0.36598814 1.3279999 4291216068
-0.34262198 -0.36874408 1.3380001 4291346883
-0.33512476 -0.36874408 1.3380001 4291544776
-0.3276276 -0.36874408 1.3380001 4291281604
-0.32276222 -0.3717756 1.349 4291346883
-0.31380147 -0.37012205 1.3430001 4291214784
-0.30764458 -0.3717756 1.349 4291411901
-0.30008572 -0.3717756 1.349 4291346621
-0.29361111 -0.37315357 1.354 4291478210
-0.28602427 -0.37315357 1.354 4291609798
-0.27843744 -0.37315357 1.354 4291543749
-0.27185076 -0.37453154 1.359 4291544261
-0.26423591 -0.37453154 1.359 4291675591
-0.256621 -0.37453154 1.359 4291675845
-0.25010553 -0.37618509 1.365 4291741639
-0.24441093 -0.37921664 1.376 4291741897
-0.2375609 -0.38059461 1.381 4291938764
-0.22982275 -0.38059461 1.381 4291939017
-0.22208463 -0.38059461 1.381 4292070604
-0.21527773 -0.38224813 1.387 4292202190
-0.20750599 -0.38224813 1.387 4292070605
-0.19973423 -0.38224813 1.387 4292070861
-0.19265448 -0.3836261 1.392 4292136654
-0.1856515 -0.38527969 1.398 4292201677
-0.17781809 -0.38527969 1.398 4292201677
-0.17071424 -0.38693327 1.404 4292070606
-0.16284722 -0.38693327 1.404 4292267984
-0.15564252 -0.38858679 1.41 4292267728
-0.14774188 -0.38858679 1.41 4292333778
-0.14033714 -0.38996476 1.415 4292399571
-0.13296993 -0.39161834 1.421 4292268499
-0.1255355 -0.39327189 1.427 4292531412
-0.11803382 -0.39492545 1.433 4292597719
-0.11000431 -0.39492545 1.433 4292531413
-0.1019748 -0.39492545 1.433 4292662486
-0.094338633 -0.396579 1.439 4292333778
-0.08627551 -0.396579 1.439 4292399056
-0.078538492 -0.39823261 1.4450001 4292333517
-0.070441745 -0.39823261 1.4450001 4292662741
-0.062647007 -0.40016174 1.452 4292596691
-0.054511033 -0.40016174 1.452 4292662741
-0.046566691 -0.40181527 1.4579999 4292465361
-0.0383971 -0.40181527 1.4579999 4292530898
-0.030227507 -0.40181527 1.4579999 4292530384
-0.022148689 -0.40346885 1.464 4292399565
-0.014002631 -0.40512243 1.47 4292399309
-0.005765799 -0.40512243 1.47 4292399310
0.0024827996 -0.40705156 1.477 4292465101
0.010758854 -0.40705156 1.477 4292465358
0.018944697 -0.40512243 1.47 4292531153
0.027310964 -0.40705156 1.477 4292531155
0.035731584 -0.40870512 1.483 4292531668
0.044219442 -0.41035867 1.489 4292596689
0.052562736 -0.41035867 1.489 4292465615
0.060906027 -0.41035867 1.489 4292267724
0.069574878 -0.41228786 1.4960001 4292267468
0.078322172 -0.414217 1.503 4292465103
0.086743914 -0.414217 1.503 4292465614
0.095545553 -0.41587055 1.5089999 4292531154
0.10448336 -0.41779974 1.516 4292465104
0.1134996 -0.41972888 1.523 4292399309
0.12203342 -0.41972888 1.523 4292333263
0.13056722 -0.41972888 1.523 4292267726
0.13910103 -0.41972888 1.523 4292267724
0.14763483 -0.41972888 1.523 4292267721
0.15678388 -0.42138243 1.529 4292267723
0.1653513 -0.42138243 1.529 4292267469
0.17391874 -0.42138243 1.529 4292136136
0.18248616 -0.42138243 1.529 4292136395
0.19192825 -0.42331159 1.536 4292201934
0.2014488 -0.42524073 1.543 4292070602
0.21104778 -0.42716989 1.55 4292135882
0.21973288 -0.42716989 1.55 4292070601
0.2304811 -0.43102822 1.564 4292004808
0.23924467 -0.43102822 1.564 4291939270
0.24800818 -0.43102822 1.564 4291938761
0.25677171 -0.43102822 1.564 4291938758
0.26689351 -0.43323296 1.572 4291872965
0.27570188 -0.43323296 1.572 4291807171
0.28451025 -0.43323296 1.572 4291741379
0.29462475 -0.4351621 1.579 4291807170
0.30481768 -0.43709126 1.586 4291873478
0.31370446 -0.43709126 1.586 4291939270
0.32421851 -0.43929601 1.594 4291807685
0.33315015 -0.43929601 1.594 4291741634
0.34208179 -0.43929601 1.594 4291478203
0.35101339 -0.43929601 1.594 4291478206
0.35994503 -0.43929601 1.594 4291478208
0.37234792 -0.44342992 1.609 4291610049
0.38302279 -0.44535908 1.6160001 4291609794
0.39401862 -0.4475638 1.624 4291544256
0.40311837 -0.4475638 1.624 4291544258
0.41221809 -0.4475638 1.624 4291478466
0.42339331 -0.44976857 1.632 4291347139
0.43253785 -0.44976857 1.632 4291281346
0.44168246 -0.44976857 1.632 4291281089
0.450827 -0.44976857 1.632 4291346879
0.46194452 -0.45169774 1.6390001 4291281344
0.47112828 -0.45169774 1.6390001 4291281346
0.48031205 -0.45169774 1.6390001 4291215296
0.4918851 -0.45390245 1.647 4291018689
0.50111371 -0.45390245 1.647 4291149759
0.5128212 -0.45610717 1.655 4291149504
0.52209461 -0.45610717 1.655 4290952124
1.3586721 -1.1269019 4.0890002 4287262286
1.381584 -1.1269019 4.0890002 4287328333
1.4044958 -1.1269019 4.0890002 4287262288
1.4106516 -1.1136732 4.0409999 4287131214
1.4166241 -1.1007203 3.994 4287197006
1.4390036 -1.1007203 3.994 4287065679
1.4613831 -1.1007203 3.994 4286999884
1.4837626 -1.1007203 3.994 4287197005
1.4887956 -1.088043 3.948 4287131215
1.5109173 -1.088043 3.948 4286869072
1.5330391 -1.088043 3.948 4286802256
1.5551609 -1.088043 3.948 4286802513
1.5593045 -1.0756414 3.9030001 4286605905
1.5811743 -1.0756414 3.9030001 4286868046
1.584972 -1.0635153 3.859 4286868049
1.6065952 -1.0635153 3.859 4286672210
1.6282182 -1.0635153 3.859 4286671953
1.6498413 -1.0635153 3.859 4286606413
1.6714643 -1.0635153 3.859 4286540618
1.6930875 -1.0635153 3.859 4286671952
1.7147106 -1.0635153 3.859 4286606160
1.7363336 -1.0635153 3.859 4286868309
1.7579567 -1.0635153 3.859 4286737491
1.7597502 -1.0516647 3.816 4286803025
1.7811325 -1.0516647 3.816 4286605649
1.7826756 -1.0400897 3.7739999 4286409038
1.7837481 -1.0285149 3.7320001 4286409038
1.8249692 -1.0400897 3.7739999 4286474833
1.8461161 -1.0400897 3.7739999 4286474833
1.8464825 -1.0285149 3.7320001 4286474579
1.867394 -1.0285149 3.7320001 4286409295
1.8883054 -1.0285149 3.7320001 4286409556
1.909217 -1.0285149 3.7320001 4286343761
1.9301286 -1.0285149 3.7320001 4286277709
1.9510399 -1.0285149 3.7320001 4286474833
1.9719514 -1.0285149 3.7320001 4286474833
1.9715029 -1.0174911 3.6919999 4286344016
-1.1714187 -0.54437983 2.016 4289705657
-1.1537925 -0.54140955 2.0050001 4289968575
-1.1556646 -0.54762024 2.0280001 4289969088
-1.1443012 -0.54762024 2.0280001 4290034627
-1.1329377 -0.54762024 2.0280001 4289968573
-1.1215742 -0.54762024 2.0280001 4290297023
-1.1102108 -0.54762024 2.0280001 4290231491
-1.0988473 -0.54762024 2.0280001 4290428609
-1.0939186 -0.55086052 2.04 4290560203
-1.0824878 -0.55086052 2.04 4290757576
-1.0710572 -0.55086052 2.04 4290428620
-1.0596263 -0.55086052 2.04 4290560197
-1.0481956 -0.55086052 2.04 4290494150
-1.0433718 -0.55437094 2.053 4290494150
-1.0318682 -0.55437094 2.053 4290559943
-1.0263289 -0.55761135 2.0650001 4290822605
-1.0147581 -0.55761135 2.0650001 4290888648
-1.0095029 -0.5611217 2.0780001 4290493897
-1.0036216 -0.56436199 2.0899999 4290757062
-0.99191064 -0.56436199 2.0899999 4290823113
-0.98629671 -0.56787241 2.1029999 4290954444
-0.97451299 -0.56787241 2.1029999 4290888140
-0.96272933 -0.56787241 2.1029999 4291085772
-0.95094562 -0.56787241 2.1029999 4290954188
-0.9391619 -0.56787241 2.1029999 4290822858
-0.92737812 -0.56787241 2.1029999 4291020236
-0.92125434 -0.57138276 2.1159999 4291217614
-0.90939778 -0.57138276 2.1159999 4291348949
-0.89754122 -0.57138276 2.1159999 4291348689
-0.89112604 -0.57489312 2.1289999 4291611860
-0.88497812 -0.57867354 2.1429999 4291744214
-0.87297022 -0.57867354 2.1429999 4291875803
-0.86618519 -0.58218396 2.1559999 4291808981
-0.85410458 -0.58218396 2.1559999 4291611601
-0.84202385 -0.58218396 2.1559999 4291546320
-0.82994318 -0.58218396 2.1559999 4291677906
-0.82317334 -0.58596444 2.1700001 4291743445
-0.81101424 -0.58596444 2.1700001 4292138457
-0.79885507 -0.58596444 2.1700001 4292730343
-0.78669596 -0.58596444 2.1700001 4292796387
-0.77453685 -0.58596444 2.1700001 4292533222
-0.51147532 -0.41287541 1.529 4291479757
-0.51211751 -0.42043623 1.557 4291611082
-0.4988668 -0.41665581 1.543 4291677136
-0.40856424 -0.35994953 1.3329999 4291808210
-0.40109503 -0.35994953 1.3329999 4292006358
-0.39214942 -0.35859939 1.3279999 4292071900
-0.38470823 -0.35859939 1.3279999 4291282122
-0.37556258 -0.35697925 1.322 4291150279
-0.36815503 -0.35697925 1.322 4291018435
-0.36238474 -0.35859939 1.3279999 4291018432
-0.35494357 -0.35859939 1.3279999 4291149763
-0.34750241 -0.35859939 1.3279999 4291280836
-0.34262198 -0.36129972 1.3380001 4291477958
-0.33512476 -0.36129972 1.3380001 4291544008
-0.3276276 -0.36129972 1.3380001 4291346885
-0.32132667 -0.36264989 1.3430001 4291478468
-0.3152034 -0.36427003 1.349 4291281088
-0.30764458 -0.36427003 1.349 4291280828
-0.30008572 -0.36427003 1.349 4291412418
-0.29361111 -0.3656202 1.354 4291544259
-0.28602427 -0.3656202 1.354 4291477957
-0.27843744 -0.3656202 1.354 4291544008
-0.27185076 -0.36697033 1.359 4291610569
-0.26423591 -0.36697033 1.359 4291610055
-0.256621 -0.36697033 1.359 4291675843
-0.25010553 -0.3685905 1.365 4291872966
-0.24441093 -0.37156084 1.376 4291872713
-0.2375609 -0.37291098 1.381 4292004300
-0.22982275 -0.37291098 1.381 4292070349
-0.22208463 -0.37291098 1.381 4292136144
-0.21527773 -0.37453115 1.387 4292136399
-0.20750599 -0.37453115 1.387 4292070093
-0.19973423 -0.37453115 1.387 4292267727
-0.19265448 -0.37588131 1.392 4292202187
-0.1856515 -0.37750149 1.398 4292267471
-0.17858127 -0.37912166 1.404 4292267470
-0.17144379 -0.38074183 1.41 4292201677
-0.16354315 -0.38074183 1.41 4292333520
-0.15564252 -0.38074183 1.41 4292333522
-0.14774188 -0.38074183 1.41 4292399568
-0.14033714 -0.38209197 1.415 4292268499
-0.13296993 -0.38371217 1.421 4292465362
-0.1255355 -0.38533235 1.427 4292465362
-0.11803382 -0.38695252 1.433 4292794327
-0.11000431 -0.38695252 1.433 4292662999
-0.10240177 -0.38857272 1.439 4292531925
-0.094338633 -0.38857272 1.439 4292465362
-0.086635239 -0.3901929 1.4450001 4292399054
-0.078538492 -0.3901929 1.4450001 4292399057
-0.070782982 -0.39208311 1.452 4292662482
-0.062647007 -0.39208311 1.452 4292662743
-0.054736283 -0.39370325 1.4579999 4292728276
-0.046566691 -0.39370325 1.4579999 4292465362
-0.0383971 -0.39370325 1.4579999 4292530642
-0.030227507 -0.39370325 1.4579999 4292465103
-0.022148689 -0.39532343 1.464 4292465102
-0.013945477 -0.39532343 1.464 4292464849
-0.005765799 -0.39694363 1.47 4292530642
0.0024827996 -0.39883384 1.477 4292464593
0.01080256 -0.40045404 1.483 4292596691
0.019112235 -0.40045404 1.483 4292662228
0.02742191 -0.40045404 1.483 4292662486
0.035876147 -0.40207419 1.489 4292662484
0.044219442 -0.40207419 1.489 4292530897
0.052562736 -0.40207419 1.489 4292596687
0.06119236 -0.4039644 1.4960001 4292399308
0.069574878 -0.4039644 1.4960001 4292267465
0.078322172 -0.40585461 1.503 4292465360
0.087090187 -0.40747479 1.5089999 4292531155
0.095165648 -0.40585461 1.503 4292465362
0.10448336 -0.409365 1.516 4292530642
0.1134996 -0.41125521 1.523 4292464848
0.12203342 -0.41125521 1.523 4292333518
0.13056722 -0.41125521 1.523 4292333516
0.13910103 -0.41125521 1.523 4292267724
0.14763483 -0.41125521 1.523 4292267723
0.15678388 -0.41287541 1.529 4292333517
0.1653513 -0.41287541 1.529 4292202189
0.17471495 -0.4147656 1.536 4292136391
0.18332161 -0.4147656 1.536 4292136396
0.19280292 -0.41665581 1.543 4292267470
0.20236269 -0.41854599 1.55 4292201932
0.21104778 -0.41854599 1.55 4292135884
0.21973288 -0.41854599 1.55 4292135885
0.22944954 -0.42043623 1.557 4292135881
0.23924467 -0.42232642 1.564 4292004807
0.24800818 -0.42232642 1.564 4291938759
0.25808513 -0.42448667 1.572 4292004548
0.26689351 -0.42448667 1.572 4291938757
0.27570188 -0.42448667 1.572 4291806917
0.28577715 -0.42637685 1.579 4291872965
0.29593086 -0.42826706 1.586 4291872967
0.30481768 -0.42826706 1.586 4291938758
0.31528687 -0.43042731 1.594 4291939273
0.32421851 -0.43042731 1.594 4291939016
0.33315015 -0.43042731 1.594 4291872964
0.34208179 -0.43042731 1.594 4291477947
0.35101339 -0.43042731 1.594 4291543740
0.35994503 -0.43042731 1.594 4291741120
0.37234792 -0.43447775 1.609 4291740867
0.38302279 -0.43636796 1.6160001 4291741633
0.39401862 -0.43852818 1.624 4291741378
0.40311837 -0.43852818 1.624 4291609792
0.41221809 -0.43852818 1.624 4291544001
0.42339331 -0.44068843 1.632 4291544001
0.43253785 -0.44068843 1.632 4291412672
0.44357693 -0.44257864 1.6390001 4291544511
0.45276073 -0.44257864 1.6390001 4291347140
0.46194452 -0.44257864 1.6390001 4291215811
0.47112828 -0.44257864 1.6390001 4291478468
0.48031205 -0.44257864 1.6390001 4291281089
0.4918851 -0.44473886 1.647 4291084225
0.50354779 -0.44689912 1.655 4291084221
0.5153001 -0.44905937 1.663 4291215042
0.52209461 -0.44689912 1.655 4290952122
0.53136808 -0.44689912 1.655 4289370248
1.3586721 -1.1041514 4.0890002 4287196743
1.381584 -1.1041514 4.0890002 4287262538
1.4044958 -1.1041514 4.0890002 4287262283
1.4106516 -1.09119 4.0409999 4287130954
1.4166241 -1.0784986 3.994 4287065420
1.4390036 -1.0784986 3.994 4286999627
1.4613831 -1.0784986 3.994 4286999627
1.4837626 -1.0784986 3.994 4286999373
1.5061421 -1.0784986 3.994 4286999375
1.5285217 -1.0784986 3.994 4286933840
1.5509012 -1.0784986 3.994 4286868052
1.5551609 -1.0660771 3.948 4286802255
1.5772827 -1.0660771 3.948 4286736463
1.5811743 -1.0539259 3.9030001 4286605646
1.6030438 -1.0539259 3.9030001 4286802259
1.6249135 -1.0539259 3.9030001 4286737487
1.6282182 -1.0420445 3.859 4286475337
1.6498413 -1.0420445 3.859 4286540366
1.6714643 -1.0420445 3.859 4286474575
1.6930875 -1.0420445 3.859 4286736463
1.7147106 -1.0420445 3.859 4286671948
1.7363336 -1.0420445 3.859 4286737745
1.7579567 -1.0420445 3.859 4286999635
1.7597502 -1.0304333 3.816 4286738000
1.7615288 -1.019092 3.7739999 4286474575
1.7826756 -1.019092 3.7739999 4286539857
1.7837481 -1.0077507 3.7320001 4286409037
1.8249692 -1.019092 3.7739999 4286540116
1.8461161 -1.019092 3.7739999 4286409040
1.8464825 -1.0077507 3.7320001 4286409039
1.867394 -1.0077507 3.7320001 4286343246
1.8883054 -1.0077507 3.7320001 4286409296
1.909217 -1.0077507 3.7320001 4286343247
1.9301286 -1.0077507 3.7320001 4286211917
1.9301283 -0.99694961 3.6919999 4286474574
1.9508158 -0.99694961 3.6919999 4286474576
1.9715029 -0.99694961 3.6919999 4286343504
-1.1714187 -0.53316325 2.016 4289705656
-1.1601225 -0.53316325 2.016 4290034111
-1.1556646 -0.53633684 2.0280001 4289837247
-1.1443012 -0.53633684 2.0280001 4290034628
-1.1329377 -0.53633684 2.0280001 4290100162
-1.1215742 -0.53633684 2.0280001 4290099905
-1.1102108 -0.53633684 2.0280001 4290165956
-1.0988473 -0.53633684 2.0280001 4290297541
-1.0939186 -0.53951043 2.04 4290493893
-1.0824878 -0.53951043 2.04 4290560197
-1.0710572 -0.53951043 2.04 4290428871
